1067
271042.325200 292805.406200 25.038600 -2047 
271046.255200 292804.296200 24.973600 -2047 
271042.660200 292803.806200 25.023600 -2047 
271045.390200 292804.736200 24.988600 -2047 
271041.740200 292805.286200 25.053600 -2047 
271047.755200 292802.366200 24.938600 -2047 
271044.910200 292805.686200 25.008600 -2047 
271045.390200 292804.406200 24.983600 -2047 
271046.280200 292802.661200 24.953600 -2047 
271049.190200 292801.626200 24.898600 -2047 
271044.000200 292805.196200 25.013600 -2047 
271046.150200 292805.206200 24.978600 -2047 
271042.270200 292803.631200 25.028600 -2047 
271048.860200 292803.781200 24.933600 -2047 
271042.860200 292803.371200 25.013600 -2047 
271046.375200 292801.541200 24.948600 -2047 
271045.755200 292803.661200 24.973600 -2047 
271046.120200 292801.636200 24.953600 -2047 
271045.365200 292802.606200 24.973600 -2047 
271045.610200 292803.441200 24.973600 -2047 
271045.945200 292804.271200 24.973600 -2047 
271045.050200 292802.616200 24.973600 -2047 
271046.035200 292804.896200 24.978600 -2047 
271048.500200 292801.546200 24.913600 -2047 
271043.055200 292804.656200 25.028600 -2047 
271045.325200 292801.901200 24.963600 -2047 
271046.210200 292803.391200 24.968600 -2047 
271042.755200 292804.921200 25.038600 -2047 
271041.485200 292805.661200 25.063600 -2047 
271043.955200 292805.406200 25.018600 -2047 
271044.965200 292802.631200 24.973600 -2047 
271046.310200 292804.936200 24.973600 -2047 
271046.170200 292802.696200 24.958600 -2047 
271045.825200 292803.376200 24.973600 -160 
271045.615200 292802.436200 24.958600 -2047 
271042.655200 292804.721200 25.038600 -2047 
271042.655200 292804.511200 25.033600 -2047 
271045.275200 292803.036200 24.973600 -2047 
271043.975200 292805.406200 25.018600 -2047 
271042.340200 292804.361200 25.033600 -2047 
271049.210200 292803.746200 24.928600 -2047 
271042.265200 292803.706200 25.028600 -2047 
271046.110200 292802.396200 24.953600 -2047 
271047.105200 292803.181200 24.953600 -2047 
271049.560200 292800.186200 24.873600 -2047 
271045.720200 292803.461200 24.973600 -2047 
271046.305200 292803.776200 24.968600 -2047 
271045.220200 292804.751200 24.988600 -2047 
271046.685200 292804.001200 24.968600 -2047 
271042.545200 292804.506200 25.033600 -2047 
271045.300200 292802.906200 24.973600 -2047 
271047.475200 292802.276200 24.938600 -2047 
271046.470200 292804.286200 24.973600 -2047 
271046.595200 292801.501200 24.938600 -2047 
271042.400200 292803.866200 25.023600 -2047 
271047.475200 292805.066200 24.963600 -2047 
271044.895200 292802.051200 24.973600 -2047 
271042.655200 292805.656200 25.038600 -2047 
271042.690200 292803.776200 25.018600 -2047 
271047.025200 292805.386200 24.973600 -2047 
271047.265200 292802.116200 24.943600 -2047 
271044.895200 292802.391200 24.973600 -2047 
271042.310200 292804.891200 25.043600 -2047 
271047.215200 292801.041200 24.928600 -2047 
271049.415200 292802.256200 24.903600 -2047 
271046.915200 292803.016200 24.953600 -2047 
271047.510200 292803.671200 24.953600 -2047 
271045.495200 292804.756200 24.988600 -2047 
271044.870200 292805.571200 25.008600 -2047 
271048.735200 292801.601200 24.908600 -2047 
271045.105200 292805.486200 25.008600 -2047 
271045.520200 292803.661200 24.978600 -2047 
271042.185200 292805.136200 25.043600 -2047 
271043.660200 292805.151200 25.023600 -2047 
271042.000200 292804.171200 25.038600 -2047 
271046.145200 292803.536200 24.968600 -2047 
271045.975200 292805.686200 24.988600 -2047 
271042.650200 292805.406200 25.033600 -2047 
271047.190200 292802.616200 24.948600 -2047 
271046.325200 292804.906200 24.978600 -2047 
271045.750200 292805.446200 24.988600 -2047 
271049.055200 292800.846200 24.888600 -2047 
271046.270200 292804.761200 24.973600 -2047 
271046.570200 292804.606200 24.973600 -2047 
271044.860200 292805.176200 25.003600 -2047 
271044.250200 292805.341200 25.018600 -2047 
271042.510200 292803.991200 25.023600 -2047 
271047.520200 292803.016200 24.943600 -2047 
271047.010200 292804.076200 24.963600 -2047 
271049.150200 292800.556200 24.888600 -2047 
271046.450200 292803.996200 24.973600 -2047 
271045.915200 292803.596200 24.973600 -160 
271046.560200 292804.066200 24.968600 -2047 
271045.080200 292805.606200 25.003600 -2047 
271043.080200 292805.071200 25.028600 -2047 
271042.865200 292804.401200 25.023600 -2047 
271045.645200 292805.406200 24.993600 -2047 
271048.005200 292803.276200 24.938600 -2047 
271044.235200 292802.371200 24.983600 -2047 
271044.800200 292802.566200 24.973600 -2047 
271043.790200 292805.131200 25.023600 -2047 
271045.160200 292804.821200 24.993600 -2047 
271040.910200 292805.131200 25.063600 -2047 
271045.795200 292801.891200 24.953600 -2047 
271044.165200 292805.416200 25.018600 -2047 
271043.745200 292805.241200 25.018600 -2047 
271048.665200 292804.296200 24.943600 -2047 
271045.220200 292802.901200 24.973600 -2047 
271045.875200 292802.686200 24.958600 -2047 
271046.950200 292805.331200 24.973600 -2047 
271045.555200 292804.416200 24.983600 -2047 
271044.985200 292805.136200 24.998600 -2047 
271044.980200 292802.716200 24.973600 -2047 
271045.590200 292804.816200 24.983600 -2047 
271043.985200 292805.311200 25.018600 -2047 
271041.220200 292804.816200 25.058600 -2047 
271045.240200 292805.501200 25.003600 -2047 
271047.120200 292804.361200 24.963600 -2047 
271046.120200 292803.841200 24.973600 -2047 
271044.780200 292805.571200 25.008600 -2047 
271046.210200 292804.466200 24.978600 -2047 
271047.805200 292801.901200 24.933600 -2047 
271041.895200 292805.306200 25.048600 -2047 
271041.975200 292803.756200 25.033600 -2047 
271042.255200 292803.861200 25.028600 -2047 
271047.405200 292803.526200 24.953600 -2047 
271046.160200 292802.891200 24.958600 -2047 
271045.060200 292801.931200 24.968600 -2047 
271043.955200 292805.571200 25.018600 -2047 
271045.445200 292802.806200 24.973600 -2047 
271043.425200 292805.221200 25.023600 -2047 
271042.065200 292803.691200 25.028600 -2047 
271042.815200 292804.611200 25.033600 -2047 
271044.765200 292805.016200 25.008600 -1798 
271047.000200 292801.686200 24.938600 -2047 
271045.025200 292802.341200 24.973600 -2047 
271045.095200 292802.736200 24.973600 -2047 
271045.705200 292805.136200 24.988600 -2047 
271045.860200 292805.166200 24.983600 -2047 
271046.600200 292804.886200 24.973600 -2047 
271042.230200 292803.666200 25.028600 -2047 
271046.380200 292805.636200 24.983600 -2047 
271042.730200 292804.036200 25.018600 -2047 
271047.495200 292802.316200 24.938600 -2047 
271040.775200 292805.041200 25.063600 -2047 
271044.445200 292805.341200 25.013600 -2047 
271042.420200 292804.456200 25.033600 -160 
271046.805200 292801.746200 24.943600 -2047 
271042.775200 292804.251200 25.023600 -2047 
271048.100200 292803.111200 24.938600 -2047 
271041.800200 292804.896200 25.048600 -2047 
271044.710200 292802.306200 24.973600 -2047 
271041.985200 292805.006200 25.043600 -2047 
271047.145200 292803.011200 24.953600 -2047 
271042.825200 292803.311200 25.013600 -2047 
271045.360200 292802.216200 24.963600 -2047 
271046.230200 292804.196200 24.973600 -2047 
271041.875200 292803.871200 25.038600 -2047 
271047.390200 292803.371200 24.953600 -2047 
271046.935200 292803.516200 24.958600 -2047 
271042.295200 292804.581200 25.038600 -2047 
271042.710200 292803.356200 25.018600 -2047 
271046.495200 292804.821200 24.973600 -2047 
271041.865200 292804.906200 25.048600 -2047 
271045.780200 292802.631200 24.958600 -2047 
271045.595200 292803.891200 24.978600 -2047 
271043.115200 292803.876200 25.018600 0 
271046.735200 292803.516200 24.958600 -2047 
271042.540200 292805.146200 25.043600 -2047 
271042.335200 292804.576200 25.038600 -2047 
271042.670200 292804.191200 25.023600 -2047 
271042.500200 292805.241200 25.038600 -2047 
271045.765200 292804.836200 24.983600 -2047 
271046.915200 292804.601200 24.968600 -2047 
271046.995200 292804.821200 24.968600 -2047 
271044.810200 292802.716200 24.973600 -2047 
271045.755200 292804.031200 24.978600 -2047 
271040.835200 292805.191200 25.063600 -2047 
271042.405200 292803.941200 25.023600 -2047 
271042.720200 292805.406200 25.033600 -2047 
271045.440200 292804.276200 24.983600 -2047 
271044.045200 292805.611200 25.018600 -2047 
271048.575200 292802.171200 24.923600 -2047 
271046.525200 292805.436200 24.978600 -2047 
271043.470200 292805.141200 25.023600 -2047 
271048.145200 292803.806200 24.948600 -2047 
271044.595200 292805.436200 25.013600 -2047 
271042.450200 292804.231200 25.028600 -2047 
271046.740200 292804.076200 24.968600 -2047 
271042.230200 292804.406200 25.038600 -2047 
271041.640200 292805.246200 25.053600 -2047 
271045.305200 292804.571200 24.988600 -2047 
271043.470200 292805.741200 25.028600 -2047 
271046.570200 292803.906200 24.968600 -2047 
271044.220200 292805.721200 25.018600 -2047 
271042.245200 292804.771200 25.038600 -2047 
271046.825200 292802.966200 24.953600 -2047 
271045.045200 292801.971200 24.968600 -2047 
271048.230200 292801.796200 24.928600 -2047 
271042.755200 292804.361200 25.028600 -2047 
271046.900200 292802.206200 24.948600 -2047 
271046.175200 292805.061200 24.978600 -2047 
271045.085200 292802.091200 24.968600 -2047 
271045.835200 292805.501200 24.988600 -2047 
271040.555200 292804.996200 25.063600 -2047 
271046.165200 292803.761200 24.973600 -2047 
271043.130200 292804.866200 25.028600 -2047 
271045.960200 292805.021200 24.983600 -2047 
271041.725200 292804.866200 25.048600 -2047 
271045.315200 292802.296200 24.968600 -2047 
271040.800200 292805.576200 25.073600 -2047 
271045.425200 292805.141200 24.993600 -2047 
271042.270200 292803.606200 25.023600 -2047 
271042.745200 292803.361200 25.018600 -2047 
271045.495200 292805.541200 24.993600 -2047 
271045.725200 292805.116200 24.983600 -2047 
271041.085200 292804.266200 25.053600 -2047 
271040.720200 292805.161200 25.063600 -2047 
271046.170200 292804.576200 24.978600 -2047 
271042.670200 292803.511200 25.018600 -2047 
271044.150200 292805.581200 25.018600 -2047 
271045.750200 292801.931200 24.953600 -2047 
271045.700200 292803.266200 24.973600 -2047 
271044.825200 292805.551200 25.008600 -2047 
271040.565200 292804.691200 25.063600 -2047 
271042.515200 292804.526200 25.033600 -2047 
271044.195200 292805.611200 25.018600 -2047 
271044.665200 292802.291200 24.973600 -2047 
271047.305200 292804.236200 24.958600 -2047 
271043.815200 292805.141200 25.018600 -2047 
271045.495200 292802.511200 24.968600 -2047 
271046.330200 292803.491200 24.968600 -2047 
271045.785200 292803.281200 24.973600 -2047 
271043.010200 292805.471200 25.028600 -2047 
271044.980200 292802.181200 24.973600 -2047 
271043.340200 292805.406200 25.028600 -2047 
271046.075200 292803.916200 24.973600 -2047 
271046.190200 292805.551200 24.983600 -2047 
271042.700200 292805.686200 25.038600 -2047 
271045.545200 292804.361200 24.983600 -2047 
271046.030200 292804.021200 24.973600 -2047 
271045.040200 292805.676200 25.003600 -2047 
271049.020200 292803.436200 24.928600 -2047 
271047.405200 292802.956200 24.948600 -2047 
271044.710200 292805.116200 25.003600 -2047 
271042.790200 292804.191200 25.023600 -2047 
271044.260200 292805.371200 25.018600 -2047 
271044.520200 292805.571200 25.013600 -2047 
271040.970200 292805.481200 25.068600 -2047 
271048.785200 292801.706200 24.908600 -2047 
271047.395200 292801.466200 24.933600 -2047 
271047.705200 292803.671200 24.953600 -2047 
271043.455200 292805.571200 25.028600 -2047 
271045.935200 292804.096200 24.973600 -2047 
271043.920200 292805.311200 25.018600 -2047 
271042.400200 292805.106200 25.043600 -2047 
271044.965200 292804.846200 24.998600 -2047 
271045.235200 292804.581200 24.988600 -2047 
271044.205200 292805.226200 25.013600 -2047 
271044.195200 292805.196200 25.013600 -2047 
271046.380200 292801.891200 24.948600 -2047 
271042.765200 292803.231200 25.018600 -2047 
271046.340200 292804.731200 24.973600 -2047 
271049.005200 292802.291200 24.913600 -2047 
271049.210200 292803.631200 24.928600 -2047 
271046.875200 292804.451200 24.968600 -2047 
271047.875200 292803.191200 24.943600 -2047 
271049.200200 292801.126200 24.893600 -2047 
271045.955200 292801.861200 24.953600 -2047 
271046.800200 292803.141200 24.953600 -2047 
271045.760200 292804.006200 24.978600 -2047 
271042.790200 292804.371200 25.028600 -2047 
271042.935200 292803.211200 25.013600 -2047 
271043.275200 292805.446200 25.028600 -2047 
271045.535200 292802.801200 24.968600 -2047 
271045.720200 292805.321200 24.993600 -160 
271043.880200 292805.241200 25.018600 -2047 
271042.510200 292805.481200 25.038600 -160 
271045.105200 292802.956200 24.973600 -2047 
271047.250200 292804.841200 24.968600 -2047 
271042.570200 292804.636200 25.038600 -2047 
271044.725200 292805.716200 25.013600 -2047 
271041.510200 292803.921200 25.043600 -2047 
271043.100200 292805.346200 25.028600 -2047 
271042.640200 292804.626200 25.033600 -2047 
271046.130200 292805.031200 24.983600 -2047 
271045.640200 292803.126200 24.973600 -2047 
271045.400200 292802.306200 24.968600 -2047 
271045.515200 292803.111200 24.973600 -2047 
271045.760200 292803.981200 24.973600 -2047 
271045.380200 292803.281200 24.978600 -2047 
271041.635200 292804.426200 25.043600 -2047 
271044.140200 292805.226200 25.018600 -2047 
271045.625200 292804.966200 24.983600 -2047 
271045.855200 292804.146200 24.973600 -2047 
271041.090200 292804.656200 25.058600 -2047 
271045.290200 292802.331200 24.968600 -2047 
271046.595200 292803.401200 24.963600 -2047 
271046.240200 292803.536200 24.968600 -2047 
271042.270200 292804.256200 25.033600 -2047 
271044.335200 292805.491200 25.018600 -2047 
271046.825200 292801.781200 24.943600 -2047 
271045.625200 292803.746200 24.978600 -2047 
271043.400200 292805.136200 25.028600 -2047 
271046.085200 292801.796200 24.953600 -2047 
271042.625200 292804.866200 25.038600 -2047 
271047.590200 292800.596200 24.923600 -2047 
271045.140200 292804.711200 24.993600 -2047 
271041.785200 292803.961200 25.043600 -2047 
271044.690200 292805.031200 25.008600 -2047 
271046.075200 292805.311200 24.983600 -2047 
271041.080200 292804.876200 25.058600 -2047 
271041.640200 292805.111200 25.053600 -2047 
271042.520200 292803.611200 25.023600 -2047 
271042.440200 292805.601200 25.038600 -2047 
271043.745200 292805.611200 25.023600 -2047 
271044.420200 292805.591200 25.018600 -2047 
271045.320200 292804.551200 24.988600 -2047 
271041.570200 292805.516200 25.058600 -2047 
271048.525200 292801.201200 24.903600 -2047 
271042.480200 292804.201200 25.028600 -2047 
271042.875200 292805.011200 25.033600 -2047 
271041.740200 292805.426200 25.053600 -160 
271044.700200 292805.186200 25.008600 -2047 
271045.415200 292804.931200 24.988600 -2047 
271046.070200 292802.251200 24.953600 -2047 
271047.780200 292804.201200 24.953600 -2047 
271040.770200 292804.286200 25.063600 -2047 
271044.830200 292802.201200 24.973600 -2047 
271046.365200 292801.991200 24.953600 -2047 
271046.300200 292802.831200 24.958600 -2047 
271045.600200 292804.391200 24.983600 -2047 
271045.770200 292801.711200 24.953600 -2047 
271046.125200 292805.716200 24.988600 -2047 
271049.515200 292800.666200 24.883600 -2047 
271045.625200 292803.176200 24.973600 -2047 
271045.390200 292803.471200 24.973600 -2047 
271041.450200 292803.981200 25.043600 -2047 
271046.830200 292805.046200 24.973600 -2047 
271043.050200 292805.271200 25.028600 -2047 
271042.790200 292803.651200 25.018600 -2047 
271046.460200 292805.041200 24.973600 -160 
271043.105200 292804.926200 25.028600 -2047 
271046.060200 292803.346200 24.968600 -2047 
271042.600200 292805.151200 25.038600 -2047 
271044.885200 292805.321200 25.003600 -2047 
271046.410200 292803.901200 24.968600 -2047 
271042.250200 292804.156200 25.033600 -2047 
271042.500200 292803.386200 25.023600 -2047 
271045.400200 292804.456200 24.988600 -2047 
271046.870200 292804.096200 24.968600 -2047 
271041.805200 292805.601200 25.058600 -2047 
271043.755200 292805.406200 25.023600 -2047 
271043.495200 292805.116200 25.028600 -2047 
271044.810200 292802.151200 24.973600 -2047 
271047.185200 292805.026200 24.968600 -2047 
271045.355200 292802.921200 24.973600 -2047 
271044.935200 292802.291200 24.973600 -2047 
271042.750200 292805.721200 25.038600 -2047 
271042.250200 292804.691200 25.038600 -2047 
271048.235200 292803.151200 24.938600 -2047 
271045.325200 292804.656200 24.988600 -2047 
271047.840200 292800.876200 24.918600 -2047 
271045.905200 292801.901200 24.953600 -2047 
271044.290200 292805.541200 25.018600 -2047 
271045.210200 292804.861200 24.993600 -2047 
271045.680200 292802.016200 24.953600 -2047 
271042.450200 292804.456200 25.033600 -2047 
271042.925200 292804.721200 25.033600 -2047 
271045.690200 292804.551200 24.983600 -2047 
271048.155200 292802.376200 24.938600 -2047 
271045.105200 292805.591200 25.003600 -2047 
271044.950200 292805.621200 25.003600 -2047 
271048.970200 292803.001200 24.923600 -2047 
271046.030200 292803.991200 24.973600 -2047 
271044.730200 292805.396200 25.008600 -2047 
271041.755200 292804.211200 25.043600 -2047 
271043.320200 292805.686200 25.033600 -2047 
271046.450200 292802.881200 24.953600 -2047 
271042.985200 292805.406200 25.033600 -2047 
271045.505200 292803.436200 24.973600 -2047 
271043.465200 292805.491200 25.028600 -2047 
271046.865200 292801.661200 24.938600 -2047 
271044.850200 292802.526200 24.978600 -2047 
271042.235200 292805.206200 25.043600 -2047 
271043.190200 292804.051200 25.018600 0 
271040.510200 292804.411200 25.063600 -2047 
271043.265200 292805.251200 25.028600 -160 
271045.260200 292805.041200 24.993600 -2047 
271046.750200 292804.411200 24.968600 -2047 
271046.460200 292802.486200 24.953600 -2047 
271046.205200 292804.901200 24.978600 -2047 
271046.045200 292804.361200 24.978600 -2047 
271045.000200 292805.741200 25.003600 -2047 
271042.610200 292804.321200 25.028600 -2047 
271042.050200 292805.416200 25.043600 -2047 
271043.250200 292805.471200 25.028600 -2047 
271041.270200 292805.131200 25.063600 -2047 
271040.555200 292804.586200 25.063600 -160 
271045.800200 292804.476200 24.983600 -2047 
271043.920200 292805.246200 25.018600 -2047 
271047.500200 292803.511200 24.953600 -2047 
271045.030200 292802.881200 24.973600 -2047 
271046.220200 292804.981200 24.978600 -2047 
271042.715200 292804.111200 25.023600 -2047 
271046.950200 292803.866200 24.963600 -2047 
271043.575200 292805.571200 25.028600 -2047 
271043.630200 292805.341200 25.023600 -2047 
271041.990200 292803.561200 25.033600 -2047 
271044.910200 292802.276200 24.973600 -2047 
271041.860200 292804.611200 25.043600 -2047 
271042.165200 292803.546200 25.028600 -2047 
271046.085200 292805.396200 24.983600 -2047 
271046.060200 292805.416200 24.988600 -2047 
271046.290200 292801.461200 24.948600 -2047 
271042.745200 292803.591200 25.023600 -2047 
271042.490200 292804.371200 25.033600 -2047 
271045.380200 292802.626200 24.973600 -2047 
271041.265200 292805.466200 25.063600 -2047 
271047.070200 292803.421200 24.953600 -2047 
271042.415200 292805.281200 25.038600 -2047 
271049.345200 292802.901200 24.913600 -2047 
271048.165200 292800.681200 24.903600 -2047 
271041.865200 292804.446200 25.043600 -2047 
271045.375200 292805.291200 24.998600 -2047 
271045.415200 292804.121200 24.983600 -2047 
271048.185200 292801.021200 24.908600 -2047 
271042.355200 292804.411200 25.038600 -2047 
271041.795200 292804.106200 25.043600 -2047 
271043.130200 292805.281200 25.028600 -2047 
271046.095200 292804.986200 24.978600 -2047 
271042.300200 292803.976200 25.028600 -2047 
271045.455200 292803.641200 24.978600 -2047 
271044.835200 292805.011200 25.003600 -2047 
271043.875200 292805.531200 25.018600 -2047 
271044.445200 292805.551200 25.018600 -2047 
271043.030200 292803.016200 25.013600 -2047 
271046.105200 292802.691200 24.958600 -2047 
271044.855200 292805.491200 25.008600 -2047 
271045.950200 292803.991200 24.973600 -2047 
271048.020200 292800.801200 24.908600 -2047 
271043.150200 292804.846200 25.028600 -2047 
271044.310200 292805.676200 25.018600 -2047 
271048.855200 292803.566200 24.933600 -2047 
271044.030200 292805.321200 25.018600 -2047 
271043.430200 292805.121200 25.023600 -2047 
271043.270200 292805.531200 25.028600 -2047 
271042.665200 292804.606200 25.033600 -2047 
271044.840200 292805.341200 25.003600 -2047 
271042.570200 292804.781200 25.038600 -2047 
271043.820200 292805.351200 25.018600 -2047 
271045.715200 292804.066200 24.978600 -2047 
271045.255200 292802.856200 24.973600 -2047 
271046.740200 292801.226200 24.938600 -2047 
271043.815200 292805.321200 25.018600 -2047 
271046.060200 292801.776200 24.953600 -2047 
271045.060200 292805.521200 25.003600 -2047 
271046.525200 292804.906200 24.973600 -2047 
271042.585200 292803.621200 25.023600 -2047 
271048.370200 292803.171200 24.938600 -2047 
271042.445200 292804.206200 25.028600 -2047 
271046.230200 292802.161200 24.953600 -2047 
271041.600200 292804.246200 25.043600 -2047 
271043.120200 292805.061200 25.028600 -2047 
271045.640200 292804.946200 24.988600 -2047 
271046.435200 292802.576200 24.953600 -2047 
271041.540200 292804.901200 25.048600 -2047 
271048.770200 292802.831200 24.923600 -2047 
271045.485200 292804.576200 24.983600 -160 
271045.655200 292804.926200 24.983600 -2047 
271041.905200 292804.586200 25.043600 -2047 
271044.310200 292802.406200 24.978600 -2047 
271042.395200 292804.951200 25.038600 -2047 
271046.655200 292803.386200 24.958600 -2047 
271047.535200 292804.481200 24.958600 -2047 
271042.320200 292804.526200 25.038600 -2047 
271045.680200 292805.031200 24.988600 -2047 
271042.220200 292803.901200 25.023600 -2047 
271047.235200 292803.491200 24.953600 -2047 
271047.830200 292801.671200 24.933600 -2047 
271044.715200 292805.551200 25.013600 -2047 
271041.875200 292804.306200 25.043600 -2047 
271042.465200 292803.801200 25.018600 -2047 
271046.230200 292801.526200 24.948600 -2047 
271044.145200 292805.726200 25.018600 -2047 
271046.875200 292803.581200 24.958600 -2047 
271042.215200 292805.361200 25.038600 -2047 
271046.420200 292801.816200 24.948600 -2047 
271048.030200 292803.556200 24.943600 -160 
271045.015200 292802.291200 24.973600 -2047 
271042.295200 292804.481200 25.038600 -2047 
271046.010200 292804.351200 24.978600 -2047 
271046.205200 292803.646200 24.968600 -2047 
271047.305200 292804.656200 24.963600 -2047 
271047.880200 292803.236200 24.943600 -2047 
271041.680200 292804.576200 25.043600 -2047 
271045.600200 292802.836200 24.968600 -2047 
271042.165200 292804.596200 25.038600 -2047 
271045.485200 292804.241200 24.978600 -2047 
271044.705200 292805.331200 25.008600 -2047 
271045.980200 292801.886200 24.953600 -2047 
271044.735200 292802.536200 24.973600 -2047 
271045.090200 292801.941200 24.968600 -2047 
271048.540200 292803.476200 24.938600 -2047 
271045.715200 292802.261200 24.958600 -2047 
271042.515200 292803.241200 25.023600 -2047 
271048.475200 292801.921200 24.923600 -2047 
271042.020200 292804.961200 25.043600 -2047 
271045.595200 292803.751200 24.973600 -2047 
271043.035200 292804.981200 25.028600 -2047 
271043.205200 292804.971200 25.028600 -2047 
271043.025200 292804.846200 25.033600 -2047 
271041.330200 292803.906200 25.048600 -2047 
271047.505200 292804.036200 24.953600 -2047 
271042.925200 292805.066200 25.033600 -2047 
271043.980200 292805.376200 25.018600 -2047 
271046.505200 292803.636200 24.968600 -2047 
271043.215200 292805.131200 25.028600 -2047 
271042.465200 292804.581200 25.038600 -2047 
271042.750200 292805.666200 25.038600 -2047 
271042.135200 292805.611200 25.043600 -2047 
271046.005200 292804.946200 24.983600 -2047 
271042.690200 292804.711200 25.033600 -2047 
271044.770200 292805.221200 25.008600 -2047 
271046.515200 292802.196200 24.953600 -2047 
271049.350200 292800.896200 24.888600 -2047 
271046.870200 292804.486200 24.968600 -2047 
271047.015200 292803.936200 24.963600 -2047 
271043.005200 292805.611200 25.033600 -2047 
271042.745200 292803.931200 25.018600 -2047 
271043.660200 292805.676200 25.028600 -2047 
271042.320200 292803.521200 25.023600 -2047 
271047.245200 292803.051200 24.948600 -2047 
271044.320200 292805.426200 25.018600 -2047 
271045.820200 292802.866200 24.963600 -2047 
271047.365200 292801.226200 24.928600 -2047 
271042.640200 292805.136200 25.038600 -2047 
271041.740200 292804.591200 25.043600 -2047 
271045.925200 292803.346200 24.973600 -2047 
271046.140200 292802.646200 24.958600 -2047 
271045.580200 292801.941200 24.958600 -2047 
271042.670200 292803.671200 25.018600 -2047 
271046.040200 292802.586200 24.958600 -2047 
271044.265200 292802.341200 24.983600 -2047 
271042.335200 292803.721200 25.023600 -2047 
271045.070200 292802.631200 24.973600 -2047 
271045.480200 292803.371200 24.978600 -2047 
271046.235200 292802.271200 24.953600 -2047 
271046.855200 292804.201200 24.968600 -2047 
271042.415200 292803.646200 25.023600 -2047 
271045.590200 292805.136200 24.988600 -2047 
271042.445200 292804.011200 25.028600 -2047 
271046.200200 292801.391200 24.948600 -2047 
271042.220200 292803.746200 25.028600 -2047 
271044.620200 292802.551200 24.978600 -2047 
271045.125200 292804.941200 24.998600 -2047 
271045.840200 292803.321200 24.973600 -2047 
271046.295200 292805.626200 24.983600 -2047 
271044.825200 292804.956200 25.003600 -2047 
271047.470200 292804.761200 24.958600 -2047 
271044.010200 292802.491200 24.988600 -2047 
271042.280200 292803.526200 25.023600 -2047 
271046.070200 292803.646200 24.973600 -2047 
271047.295200 292802.911200 24.948600 -2047 
271043.460200 292805.606200 25.028600 -2047 
271049.055200 292801.351200 24.903600 -2047 
271044.840200 292802.556200 24.978600 -2047 
271042.790200 292804.216200 25.023600 -160 
271049.060200 292802.511200 24.913600 -2047 
271045.370200 292803.006200 24.973600 -2047 
271045.885200 292804.176200 24.973600 -2047 
271047.540200 292801.006200 24.928600 -2047 
271043.340200 292805.001200 25.023600 -2047 
271044.560200 292802.461200 24.973600 -2047 
271047.705200 292803.881200 24.953600 -2047 
271042.145200 292805.271200 25.038600 -2047 
271044.215200 292802.336200 24.983600 -2047 
271042.785200 292804.736200 25.033600 -2047 
271046.215200 292802.031200 24.953600 -2047 
271041.185200 292804.431200 25.048600 -2047 
271042.315200 292803.376200 25.023600 -2047 
271047.245200 292803.566200 24.953600 -2047 
271045.675200 292801.871200 24.953600 -2047 
271047.135200 292804.906200 24.968600 -2047 
271042.395200 292805.261200 25.038600 -2047 
271045.260200 292801.981200 24.963600 -2047 
271044.760200 292805.416200 25.008600 -2047 
271041.910200 292805.736200 25.058600 -2047 
271046.255200 292804.791200 24.978600 -2047 
271041.330200 292804.456200 25.048600 -2047 
271042.925200 292805.311200 25.028600 -2047 
271048.390200 292804.241200 24.943600 -2047 
271044.260200 292805.251200 25.013600 -2047 
271046.870200 292805.271200 24.978600 -2047 
271046.125200 292802.326200 24.953600 -2047 
271043.335200 292805.246200 25.023600 -2047 
271045.965200 292804.366200 24.978600 -2047 
271045.495200 292802.256200 24.958600 -2047 
271045.315200 292802.976200 24.973600 -2047 
271044.070200 292805.231200 25.018600 -2047 
271045.810200 292804.321200 24.978600 -2047 
271045.255200 292805.386200 25.003600 -2047 
271044.980200 292802.521200 24.973600 -2047 
271041.930200 292805.561200 25.053600 -2047 
271045.575200 292804.461200 24.983600 -2047 
271045.630200 292805.686200 24.998600 -2047 
271042.290200 292804.951200 25.038600 -2047 
271042.310200 292803.401200 25.023600 -2047 
271046.035200 292802.766200 24.958600 -2047 
271044.605200 292802.446200 24.973600 -2047 
271044.015200 292805.726200 25.018600 -2047 
271046.220200 292805.206200 24.978600 -2047 
271047.780200 292802.766200 24.938600 -2047 
271044.440200 292805.281200 25.013600 -2047 
271047.290200 292805.006200 24.963600 -2047 
271046.040200 292803.126200 24.963600 -2047 
271045.300200 292805.246200 24.998600 -2047 
271044.760200 292802.131200 24.973600 -2047 
271042.645200 292804.831200 25.038600 -2047 
271047.640200 292800.886200 24.923600 -2047 
271044.375200 292805.386200 25.018600 -2047 
271042.240200 292804.951200 25.043600 -2047 
271045.465200 292805.376200 24.998600 -2047 
271045.490200 292804.316200 24.983600 -2047 
271042.740200 292804.791200 25.033600 -2047 
271041.250200 292804.396200 25.048600 -2047 
271045.840200 292802.811200 24.963600 -2047 
271046.830200 292802.256200 24.948600 -2047 
271045.735200 292802.216200 24.953600 -2047 
271044.870200 292805.026200 25.003600 -2047 
271043.000200 292804.681200 25.028600 -2047 
271042.850200 292804.436200 25.028600 -2047 
271047.605200 292802.041200 24.938600 -2047 
271042.085200 292804.636200 25.038600 -160 
271042.745200 292804.406200 25.028600 -2047 
271042.710200 292804.091200 25.023600 -2047 
271046.285200 292803.511200 24.968600 -2047 
271042.690200 292803.756200 25.018600 -2047 
271042.710200 292805.051200 25.038600 -160 
271046.405200 292805.491200 24.978600 -2047 
271046.000200 292805.486200 24.988600 -2047 
271044.975200 292802.561200 24.973600 -2047 
271042.040200 292803.521200 25.028600 -2047 
271046.580200 292805.341200 24.978600 -2047 
271046.160200 292803.031200 24.963600 -2047 
271041.510200 292804.976200 25.053600 -160 
271041.940200 292805.091200 25.048600 -160 
271049.215200 292800.671200 24.888600 -2047 
271046.805200 292803.941200 24.968600 -2047 
271047.910200 292804.031200 24.953600 -2047 
271045.320200 292802.831200 24.973600 -2047 
271044.875200 292804.916200 25.003600 -2047 
271046.185200 292804.161200 24.973600 -2047 
271045.475200 292803.191200 24.973600 -2047 
271046.255200 292803.941200 24.973600 -2047 
271045.540200 292804.461200 24.983600 -2047 
271044.775200 292802.691200 24.973600 -2047 
271040.790200 292804.796200 25.063600 -2047 
271043.050200 292805.131200 25.028600 -2047 
271045.425200 292802.321200 24.963600 -2047 
271045.230200 292802.281200 24.973600 -2047 
271044.495200 292802.411200 24.978600 -2047 
271045.385200 292802.176200 24.963600 -2047 
271045.340200 292804.856200 24.988600 -2047 
271042.555200 292804.761200 25.038600 -2047 
271047.695200 292804.051200 24.953600 -2047 
271047.075200 292801.256200 24.933600 -2047 
271044.810200 292805.061200 25.003600 -2047 
271042.965200 292804.776200 25.028600 -2047 
271046.630200 292804.626200 24.973600 -2047 
271045.555200 292804.726200 24.988600 -2047 
271046.385200 292804.416200 24.973600 -2047 
271046.305200 292803.686200 24.968600 -2047 
271045.975200 292804.111200 24.973600 -2047 
271044.310200 292805.496200 25.018600 -2047 
271049.530200 292802.731200 24.908600 -2047 
271041.390200 292805.206200 25.058600 -2047 
271042.815200 292804.936200 25.038600 -2047 
271047.165200 292801.666200 24.938600 -160 
271041.200200 292803.986200 25.048600 -2047 
271047.485200 292802.566200 24.943600 -2047 
271045.750200 292802.831200 24.963600 -2047 
271044.240200 292805.191200 25.013600 -2047 
271041.885200 292803.646200 25.038600 -2047 
271046.810200 292803.806200 24.968600 -2047 
271046.250200 292803.341200 24.963600 -2047 
271044.630200 292802.246200 24.973600 -2047 
271043.090200 292804.911200 25.028600 -2047 
271047.960200 292803.011200 24.938600 -2047 
271045.990200 292805.236200 24.983600 -2047 
271042.565200 292803.841200 25.023600 -160 
271044.215200 292805.376200 25.018600 -2047 
271046.645200 292802.726200 24.958600 -2047 
271046.125200 292804.936200 24.978600 -2047 
271046.770200 292804.311200 24.968600 -2047 
271042.770200 292804.531200 25.033600 -2047 
271041.305200 292805.196200 25.063600 -2047 
271041.670200 292804.331200 25.043600 -2047 
271046.175200 292804.711200 24.978600 -2047 
271047.920200 292804.711200 24.953600 -2047 
271042.890200 292805.236200 25.028600 -2047 
271045.865200 292804.071200 24.973600 -2047 
271042.875200 292803.466200 25.018600 -160 
271047.400200 292803.411200 24.953600 -2047 
271041.995200 292804.356200 25.038600 -2047 
271042.440200 292805.016200 25.038600 -2047 
271046.985200 292802.371200 24.948600 -2047 
271042.940200 292803.146200 25.013600 -2047 
271045.035200 292801.916200 24.968600 -2047 
271043.505200 292805.581200 25.028600 -2047 
271042.165200 292804.126200 25.033600 -2047 
271049.535200 292801.251200 24.888600 -2047 
271049.845200 292800.066200 24.868600 -2047 
271045.865200 292804.731200 24.983600 -2047 
271042.445200 292804.036200 25.023600 -2047 
271044.760200 292802.091200 24.973600 -2047 
271045.800200 292802.921200 24.968600 -2047 
271046.260200 292804.491200 24.973600 -2047 
271047.440200 292801.106200 24.928600 -2047 
271046.060200 292802.926200 24.958600 -2047 
271046.015200 292804.326200 24.978600 -2047 
271047.885200 292801.211200 24.928600 0 
271045.100200 292805.221200 25.003600 -2047 
271047.065200 292803.041200 24.953600 -2047 
271045.510200 292802.706200 24.968600 -2047 
271046.775200 292801.866200 24.948600 -2047 
271040.675200 292805.311200 25.073600 -2047 
271045.420200 292803.021200 24.973600 -2047 
271044.420200 292802.291200 24.978600 -2047 
271042.335200 292803.976200 25.028600 -2047 
271046.305200 292803.921200 24.973600 -2047 
271045.755200 292805.356200 24.988600 -2047 
271044.035200 292802.521200 24.988600 -2047 
271044.480200 292802.471200 24.978600 -2047 
271046.105200 292805.366200 24.983600 -2047 
271046.755200 292803.816200 24.963600 -2047 
271046.625200 292803.721200 24.968600 -2047 
271045.220200 292804.801200 24.993600 -2047 
271042.180200 292805.656200 25.043600 -2047 
271048.895200 292801.971200 24.908600 -2047 
271048.860200 292803.671200 24.933600 -2047 
271043.705200 292805.426200 25.023600 -2047 
271041.655200 292804.691200 25.048600 -2047 
271046.570200 292804.951200 24.973600 -2047 
271043.390200 292805.496200 25.028600 -2047 
271046.590200 292803.371200 24.958600 -2047 
271045.355200 292804.721200 24.988600 -2047 
271045.270200 292802.211200 24.968600 -2047 
271042.540200 292805.016200 25.038600 -2047 
271046.850200 292802.456200 24.953600 -2047 
271046.375200 292805.051200 24.978600 -2047 
271042.890200 292804.981200 25.033600 -2047 
271046.430200 292804.466200 24.973600 -2047 
271046.110200 292804.061200 24.973600 -2047 
271046.295200 292801.911200 24.953600 -2047 
271048.535200 292803.976200 24.943600 -2047 
271045.765200 292804.746200 24.983600 -2047 
271046.400200 292802.916200 24.953600 -2047 
271046.535200 292801.961200 24.948600 -2047 
271042.555200 292804.681200 25.038600 -2047 
271045.020200 292805.106200 25.008600 -2047 
271046.290200 292804.096200 24.973600 -2047 
271047.180200 292801.756200 24.938600 -2047 
271047.930200 292802.491200 24.938600 -2047 
271041.825200 292804.821200 25.043600 -2047 
271042.275200 292804.281200 25.033600 -2047 
271042.000200 292804.496200 25.038600 -160 
271044.905200 292802.706200 24.973600 -2047 
271044.435200 292802.466200 24.978600 -2047 
271042.480200 292803.336200 25.018600 -2047 
271045.775200 292804.141200 24.978600 -2047 
271045.630200 292803.106200 24.973600 -2047 
271044.190200 292805.511200 25.018600 -2047 
271042.565200 292805.581200 25.038600 -2047 
271044.395200 292805.291200 25.018600 -2047 
271043.590200 292803.586200 25.008600 -160 
271043.565200 292805.456200 25.023600 -2047 
271045.730200 292803.891200 24.973600 -2047 
271046.040200 292802.876200 24.958600 -2047 
271042.800200 292805.141200 25.033600 -2047 
271045.935200 292805.386200 24.988600 -2047 
271045.895200 292805.121200 24.983600 -2047 
271044.680200 292805.481200 25.008600 -2047 
271045.255200 292805.001200 24.993600 -2047 
271044.280200 292802.526200 24.983600 -2047 
271042.465200 292804.506200 25.033600 -2047 
271045.750200 292803.301200 24.973600 -2047 
271045.660200 292804.331200 24.978600 -2047 
271043.420200 292805.471200 25.028600 -2047 
271047.565200 292802.471200 24.938600 -2047 
271047.030200 292802.896200 24.953600 -2047 
271043.545200 292805.676200 25.028600 -2047 
271045.985200 292802.416200 24.953600 -2047 
271045.540200 292803.081200 24.973600 -2047 
271042.895200 292803.291200 25.013600 -2047 
271045.650200 292804.041200 24.978600 -2047 
271046.015200 292803.346200 24.968600 -2047 
271047.390200 292804.706200 24.963600 -2047 
271045.975200 292803.581200 24.973600 -2047 
271042.230200 292805.291200 25.038600 -2047 
271041.840200 292805.336200 25.048600 -2047 
271042.130200 292804.361200 25.038600 -2047 
271045.150200 292805.001200 25.003600 -2047 
271048.025200 292803.546200 24.948600 -2047 
271043.760200 292805.281200 25.018600 -2047 
271041.630200 292805.081200 25.053600 -2047 
271049.700200 292800.296200 24.873600 -160 
271046.405200 292802.401200 24.953600 -2047 
271045.950200 292803.031200 24.968600 -2047 
271044.720200 292805.081200 25.003600 -2047 
271046.535200 292803.121200 24.958600 -2047 
271048.660200 292802.471200 24.928600 -2047 
271044.740200 292805.541200 25.008600 -2047 
271042.590200 292805.206200 25.038600 -2047 
271040.665200 292804.696200 25.063600 -2047 
271045.440200 292804.836200 24.988600 -2047 
271044.590200 292802.506200 24.973600 -2047 
271047.715200 292802.921200 24.938600 -2047 
271046.165200 292804.606200 24.978600 -2047 
271044.130200 292805.696200 25.018600 -2047 
271042.115200 292803.591200 25.028600 -2047 
271046.140200 292802.061200 24.953600 -2047 
271042.380200 292804.926200 25.038600 -2047 
271045.020200 292805.031200 25.003600 -2047 
271044.875200 292802.221200 24.973600 -2047 
271047.735200 292801.776200 24.933600 -2047 
271045.520200 292801.831200 24.958600 -2047 
271042.470200 292804.756200 25.038600 -2047 
271041.850200 292804.581200 25.043600 -2047 
271045.795200 292805.551200 24.988600 -2047 
271046.990200 292803.401200 24.953600 -2047 
271045.845200 292802.016200 24.953600 -2047 
271044.285200 292805.186200 25.013600 -2047 
271045.065200 292804.831200 24.998600 -2047 
271045.995200 292803.846200 24.973600 -2047 
271045.915200 292803.866200 24.973600 -2047 
271043.505200 292805.031200 25.023600 -2047 
271042.630200 292805.386200 25.033600 -2047 
271047.220200 292804.246200 24.958600 -2047 
271041.455200 292803.851200 25.048600 -2047 
271042.730200 292805.181200 25.038600 -2047 
271041.880200 292804.501200 25.043600 -2047 
271046.060200 292802.711200 24.958600 -2047 
271045.750200 292802.441200 24.958600 -2047 
271043.155200 292805.601200 25.033600 -2047 
271043.125200 292805.151200 25.028600 -2047 
271048.820200 292804.361200 24.938600 -2047 
271041.685200 292805.436200 25.058600 -2047 
271041.100200 292805.521200 25.068600 -2047 
271044.000200 292805.686200 25.018600 -2047 
271048.725200 292802.051200 24.913600 -2047 
271046.625200 292804.011200 24.968600 -2047 
271045.685200 292805.291200 24.993600 -2047 
271047.595200 292801.781200 24.933600 -2047 
271046.215200 292802.781200 24.958600 -2047 
271045.685200 292802.661200 24.963600 -2047 
271047.570200 292804.281200 24.953600 -2047 
271044.790200 292803.071200 24.983600 -160 
271045.835200 292804.221200 24.978600 -2047 
271043.905200 292805.571200 25.018600 -2047 
271048.735200 292802.731200 24.928600 -2047 
271047.960200 292804.491200 24.953600 -2047 
271040.690200 292804.381200 25.063600 -2047 
271045.845200 292803.506200 24.973600 -2047 
271043.895200 292805.426200 25.018600 -2047 
271047.985200 292804.401200 24.953600 -2047 
271045.180200 292805.491200 25.003600 -2047 
271046.370200 292802.111200 24.953600 -2047 
271040.600200 292804.386200 25.063600 -2047 
271042.395200 292803.531200 25.023600 -2047 
271045.605200 292802.906200 24.973600 -2047 
271046.055200 292803.536200 24.973600 -2047 
271045.800200 292803.111200 24.973600 -2047 
271042.265200 292804.011200 25.028600 -2047 
271045.250200 292802.506200 24.973600 -2047 
271046.035200 292803.936200 24.973600 -2047 
271042.390200 292804.506200 25.033600 -2047 
271042.130200 292804.851200 25.043600 -2047 
271042.545200 292805.226200 25.038600 -2047 
271045.900200 292804.276200 24.978600 -2047 
271047.275200 292801.896200 24.938600 -2047 
271042.265200 292803.681200 25.028600 -2047 
271043.220200 292804.986200 25.028600 -2047 
271042.800200 292805.471200 25.033600 -2047 
271046.430200 292803.446200 24.963600 -2047 
271045.505200 292804.451200 24.983600 -2047 
271046.175200 292804.216200 24.973600 -2047 
271042.840200 292804.706200 25.033600 -2047 
271044.585200 292802.441200 24.973600 -2047 
271043.975200 292805.686200 25.023600 -2047 
271043.170200 292804.941200 25.028600 -2047 
271045.645200 292802.746200 24.963600 -2047 
271047.830200 292802.976200 24.938600 -2047 
271042.905200 292803.096200 25.013600 -2047 
271044.575200 292805.141200 25.008600 -2047 
271042.845200 292805.136200 25.033600 -2047 
271044.450200 292802.371200 24.978600 -2047 
271045.720200 292804.741200 24.983600 -2047 
271043.350200 292805.331200 25.028600 -2047 
271045.255200 292804.696200 24.993600 -2047 
271044.660200 292805.416200 25.008600 -2047 
271045.095200 292805.181200 25.003600 -2047 
271046.230200 292802.691200 24.958600 -2047 
271046.810200 292801.601200 24.943600 -2047 
271044.990200 292805.561200 25.008600 -2047 
271046.810200 292805.076200 24.973600 -2047 
271044.920200 292805.216200 25.003600 -2047 
271049.400200 292803.721200 24.923600 -2047 
271043.005200 292805.666200 25.033600 -2047 
271044.735200 292802.506200 24.978600 -2047 
271045.400200 292803.516200 24.973600 -2047 
271045.875200 292801.616200 24.953600 -2047 
271042.175200 292804.621200 25.038600 -2047 
271041.855200 292804.416200 25.043600 -2047 
271042.720200 292803.426200 25.018600 -2047 
271043.645200 292805.706200 25.028600 -2047 
271046.220200 292804.226200 24.973600 -2047 
271042.445200 292804.711200 25.038600 -2047 
271042.500200 292805.026200 25.038600 -2047 
271047.620200 292802.526200 24.938600 -160 
271046.630200 292802.371200 24.953600 -2047 
271046.290200 292802.241200 24.953600 -2047 
271041.475200 292805.221200 25.058600 -2047 
271042.030200 292804.066200 25.033600 -2047 
271047.220200 292804.476200 24.963600 -160 
271042.995200 292805.271200 25.028600 -2047 
271042.105200 292803.991200 25.028600 -2047 
271047.605200 292803.831200 24.953600 -2047 
271043.495200 292805.746200 25.028600 -2047 
271045.195200 292804.641200 24.988600 -2047 
271045.145200 292802.556200 24.973600 -2047 
271042.270200 292805.166200 25.043600 -2047 
271047.050200 292805.116200 24.973600 -2047 
271047.125200 292804.941200 24.968600 -2047 
271045.020200 292802.676200 24.973600 -2047 
271045.750200 292805.006200 24.983600 -2047 
271043.285200 292805.621200 25.033600 -2047 
271045.880200 292804.356200 24.978600 -2047 
271042.080200 292804.751200 25.038600 -2047 
271042.620200 292805.436200 25.033600 -2047 
271045.245200 292802.881200 24.973600 -2047 
271046.860200 292803.446200 24.958600 -2047 
271045.675200 292804.086200 24.978600 -2047 
271049.590200 292801.366200 24.888600 -2047 
271047.540200 292803.096200 24.948600 -2047 
271046.200200 292803.336200 24.968600 -2047 
271043.415200 292805.356200 25.028600 -2047 
271044.830200 292802.726200 24.973600 -2047 
271041.920200 292803.806200 25.033600 -2047 
271042.725200 292803.991200 25.018600 -2047 
271045.205200 292805.581200 25.003600 -2047 
271042.390200 292804.266200 25.033600 -2047 
271041.745200 292804.421200 25.043600 -2047 
271042.325200 292805.321200 25.038600 -2047 
271046.075200 292803.971200 24.973600 -2047 
271041.980200 292804.306200 25.038600 -2047 
271044.725200 292805.626200 25.013600 -2047 
271041.860200 292805.361200 25.048600 -2047 
271045.860200 292804.096200 24.973600 -2047 
271047.870200 292803.151200 24.943600 -2047 
271043.060200 292805.321200 25.028600 -2047 
271045.820200 292803.601200 24.973600 -2047 
271044.030200 292805.171200 25.013600 -2047 
271044.055200 292805.321200 25.018600 -2047 
271046.505200 292804.936200 24.973600 -2047 
271044.835200 292802.116200 24.973600 -2047 
271046.445200 292803.536200 24.963600 -2047 
271044.470200 292805.176200 25.008600 -2047 
271045.705200 292803.411200 24.973600 -2047 
271046.210200 292802.131200 24.953600 -2047 
271043.435200 292805.261200 25.023600 -2047 
271045.675200 292803.571200 24.973600 -2047 
271046.350200 292804.026200 24.973600 -2047 
271045.445200 292804.771200 24.988600 -2047 
271045.435200 292802.861200 24.973600 -2047 
271045.745200 292801.691200 24.953600 -2047 
271048.150200 292803.941200 24.948600 -2047 
271046.850200 292804.801200 24.973600 -2047 
271047.595200 292802.556200 24.938600 -2047 
271047.505200 292800.731200 24.923600 -2047 
271042.800200 292803.376200 25.018600 -2047 
271041.800200 292804.166200 25.043600 -2047 
271046.660200 292801.706200 24.943600 -2047 
271046.140200 292805.321200 24.983600 -2047 
271045.605200 292804.131200 24.978600 -2047 
271041.460200 292805.481200 25.063600 -2047 
271042.860200 292804.456200 25.028600 -2047 
271042.300200 292805.696200 25.043600 -2047 
271044.415200 292805.226200 25.013600 -2047 
271046.735200 292802.911200 24.953600 -2047 
271042.995200 292805.081200 25.033600 -2047 
271045.340200 292802.901200 24.973600 -2047 
271042.780200 292803.691200 25.018600 -2047 
271042.880200 292805.116200 25.033600 -2047 
271043.215200 292804.906200 25.023600 -2047 
271042.520200 292805.126200 25.038600 -2047 
271041.940200 292804.926200 25.048600 -2047 
271045.910200 292803.736200 24.973600 -2047 
271048.280200 292802.306200 24.933600 -2047 
271045.395200 292804.386200 24.988600 -2047 
271043.170200 292804.791200 25.028600 -2047 
271043.095200 292805.386200 25.028600 -2047 
271046.150200 292802.556200 24.953600 -2047 
271041.865200 292803.631200 25.038600 -160 
271043.620200 292805.696200 25.028600 -2047 
271045.385200 292804.556200 24.983600 -2047 
271044.485200 292805.511200 25.013600 -2047 
271046.170200 292805.571200 24.983600 -2047 
271042.670200 292804.741200 25.038600 -2047 
271045.565200 292805.541200 24.998600 -2047 
271047.340200 292803.891200 24.953600 -2047 
271046.140200 292803.506200 24.968600 -2047 
271047.095200 292802.401200 24.948600 -2047 
271044.725200 292805.046200 25.003600 -2047 
271045.595200 292803.916200 24.978600 -2047 
271042.770200 292803.461200 25.018600 -2047 
271042.410200 292804.976200 25.038600 -2047 
271045.895200 292803.116200 24.968600 -2047 
271042.685200 292804.891200 25.038600 -2047 
271042.180200 292803.816200 25.028600 -2047 
271042.640200 292803.201200 25.018600 -2047 
271044.905200 292805.116200 25.003600 -2047 
271045.255200 292804.546200 24.988600 -2047 
271045.760200 292804.576200 24.983600 -2047 
271043.275200 292805.666200 25.033600 -2047 
271041.505200 292804.626200 25.048600 -2047 
271042.445200 292803.646200 25.018600 -2047 
271047.605200 292800.846200 24.923600 -2047 
271044.010200 292802.521200 24.983600 -2047 
271045.160200 292805.606200 25.003600 -2047 
271046.580200 292803.066200 24.953600 -2047 
271042.155200 292805.636200 25.043600 -2047 
271045.560200 292802.316200 24.958600 -2047 
271046.730200 292801.361200 24.938600 -2047 
271043.515200 292805.096200 25.023600 -2047 
271041.480200 292805.076200 25.058600 -2047 
271045.855200 292802.496200 24.958600 -2047 
271048.210200 292802.511200 24.933600 -2047 
271046.115200 292803.756200 24.973600 -2047 
271046.335200 292804.591200 24.973600 -2047 
271047.140200 292805.136200 24.968600 -2047 
271047.250200 292803.681200 24.953600 -2047 
271042.435200 292803.501200 25.023600 -2047 
271042.945200 292805.081200 25.033600 -2047 
271043.040200 292804.816200 25.033600 -2047 
271044.660200 292805.346200 25.008600 -2047 
271047.470200 292802.526200 24.938600 -2047 
271045.205200 292802.881200 24.973600 -2047 
271040.635200 292804.691200 25.063600 -160 
271046.020200 292803.586200 24.973600 -2047 
271043.925200 292805.716200 25.023600 -160 
271046.660200 292804.731200 24.973600 -2047 
271047.615200 292801.571200 24.933600 -2047 
271046.625200 292804.826200 24.973600 -2047 
271046.070200 292804.001200 24.973600 -2047 
271043.580200 292804.761200 25.023600 -160 
271040.965200 292804.446200 25.058600 -2047 
271045.945200 292804.646200 24.988600 -2047 
271047.675200 292803.336200 24.948600 -2047 
271046.925200 292801.586200 24.938600 -2047 
271043.085200 292805.561200 25.033600 -2047 
271041.960200 292804.226200 25.038600 -2047 
271040.550200 292805.291200 25.073600 -2047 
271046.315200 292801.601200 24.948600 -2047 
271045.835200 292803.981200 24.973600 -2047 
271041.915200 292805.331200 25.048600 -2047 
271042.790200 292804.441200 25.028600 -2047 
