1069
271019.872899 292816.038899 25.553300 -1798 
271017.442901 292816.588900 25.603300 -1798 
271019.852901 292815.568900 25.553300 -1798 
271019.542900 292815.788899 25.558300 -1798 
271017.667900 292817.018901 25.598300 -1798 
271018.267900 292816.213900 25.588300 -1798 
271017.337902 292816.783900 25.598300 -1798 
271017.712900 292817.128899 25.603300 -1798 
271019.472900 292816.388900 25.563300 0 
271016.732898 292816.953900 25.613300 -1798 
271019.482900 292815.928901 25.563300 -1798 
271019.707900 292816.048900 25.558300 -1798 
271017.037898 292816.833899 25.603300 -1798 
271019.277900 292815.828900 25.563300 -1798 
271017.872899 292816.703900 25.598300 -1798 
271019.537900 292815.753899 25.558300 -1798 
271017.787900 292816.858901 25.593300 -1798 
271019.512901 292815.453900 25.553300 -1798 
271019.922901 292815.368900 25.548300 -1798 
271019.772899 292815.943900 25.553300 -1798 
271016.922901 292816.863900 25.608300 0 
271017.447898 292816.788899 25.598300 -1798 
271019.822900 292816.113900 25.558300 -1798 
271019.737899 292815.828900 25.553300 -1798 
271019.902900 292815.253900 25.538300 -1798 
271019.147899 292815.633900 25.563300 -1798 
271019.612899 292815.478900 25.553300 -1798 
271019.872899 292815.343900 25.548300 -1798 
271016.672901 292817.183900 25.623300 -1798 
271019.777900 292815.913899 25.553300 -1798 
271017.207900 292817.163899 25.608300 -1798 
271019.842901 292816.058900 25.558300 -1798 
271019.307901 292815.603900 25.558300 -1798 
271017.322898 292817.198899 25.608300 -1798 
271017.827899 292816.733901 25.593300 -1798 
271019.517900 292815.813901 25.563300 -1798 
271019.047901 292815.878899 25.568300 -1798 
271019.727901 292815.428900 25.548300 -1798 
271019.112899 292815.873900 25.568300 -1798 
271019.922901 292815.513900 25.548300 -1798 
271019.262901 292815.888900 25.563300 0 
271018.767900 292815.858901 25.568300 -1798 
271017.567901 292816.868899 25.598300 -1798 
271019.377901 292815.873900 25.563300 -1798 
271018.517900 292816.013900 25.578300 -1798 
271016.872901 292817.043900 25.608300 -1798 
271019.897899 292816.093900 25.553300 -1798 
271019.917900 292816.108901 25.553300 -1798 
271018.637901 292815.898900 25.573300 -1798 
271017.712900 292817.218900 25.603300 -1798 
271019.837900 292816.018901 25.558300 -1798 
271019.352901 292815.713900 25.563300 -1798 
271017.437900 292816.708899 25.603300 -1798 
271017.102901 292816.738900 25.603300 -1798 
271016.967899 292817.148900 25.613300 -1798 
271018.552900 292815.963900 25.573300 -1798 
271018.842901 292815.818900 25.568300 -1798 
271018.972900 292815.798900 25.568300 -1798 
271017.527900 292816.558900 25.598300 -1798 
271016.827899 292816.978900 25.608300 -1798 
271017.802900 292816.908900 25.593300 -1798 
271017.762901 292816.393901 25.593300 -1798 
271018.517900 292816.818900 25.588300 0 
271017.982900 292816.348901 25.593300 -1798 
271019.557901 292815.918900 25.558300 -1798 
271019.477901 292815.633900 25.558300 -1798 
271017.682901 292816.593900 25.598300 0 
271018.657899 292815.953900 25.573300 -1798 
271017.857900 292816.468900 25.593300 -1798 
271018.722900 292815.898900 25.568300 -1798 
271017.732900 292816.513900 25.598300 -1798 
271016.617900 292817.058900 25.613300 -1798 
271019.557901 292815.583900 25.553300 -1798 
271017.582900 292816.803901 25.598300 -1798 
271019.817899 292816.003899 25.558300 -1798 
271019.287900 292815.768901 25.563300 -1798 
271017.682901 292817.178901 25.603300 -1798 
271017.497901 292817.223901 25.608300 -1798 
271019.997899 292815.593900 25.548300 -1798 
271017.737899 292816.433900 25.598300 -1798 
271017.672901 292816.973901 25.598300 -1798 
271019.242900 292817.013900 25.573300 0 
271017.967901 292816.353900 25.593300 -160 
271016.937900 292816.873900 25.603300 -1798 
271019.582900 292815.513900 25.553300 -1798 
271017.797901 292816.928901 25.593300 -1798 
271017.787900 292816.993899 25.598300 -1798 
271017.297901 292817.003899 25.598300 -1798 
271019.712900 292815.508900 25.553300 -1798 
271017.302902 292816.763900 25.603300 -1798 
271019.447900 292815.798900 25.563300 -1798 
271019.592901 292815.663899 25.553300 -1798 
271019.692899 292815.803901 25.553300 -1798 
271017.042900 292817.198899 25.613300 0 
271017.502899 292817.083899 25.603300 -1798 
271019.957900 292815.283900 25.543300 -1798 
271018.222900 292816.253899 25.588300 -1798 
271019.647899 292815.788899 25.553300 -1798 
271017.722900 292816.693900 25.598300 0 
271017.907899 292816.393901 25.593300 -1798 
271019.132900 292815.758901 25.563300 -1798 
271019.527900 292815.938901 25.563300 -1798 
271019.742900 292815.998900 25.558300 -1798 
271017.497901 292817.178901 25.603300 -1798 
271017.722900 292816.778899 25.598300 -1798 
271017.862899 292816.723901 25.593300 -1798 
271018.157899 292816.318900 25.593300 -1798 
271016.727901 292817.013900 25.608300 -1798 
271017.652900 292816.533900 25.598300 -1798 
271019.337900 292815.863900 25.563300 -1798 
271016.922901 292817.188901 25.613300 -1798 
271019.972900 292816.033900 25.553300 -1798 
271017.772899 292816.498900 25.593300 -1798 
271016.507900 292817.223901 25.623300 -1798 
271018.867900 292815.893901 25.568300 -1798 
271016.727901 292816.983901 25.608300 -1798 
271017.947900 292816.493899 25.588300 -1798 
271018.132900 292816.223901 25.593300 -1798 
271017.997899 292816.518901 25.588300 -1798 
271019.847900 292815.838900 25.553300 -1798 
271019.987899 292816.083899 25.553300 -1798 
271017.857900 292816.673900 25.593300 -1798 
271017.412898 292816.983901 25.598300 -1798 
271019.817899 292815.788899 25.553300 -1798 
271019.897899 292815.633900 25.553300 -1798 
271017.907899 292816.343900 25.593300 -1798 
271017.312900 292816.603900 25.603300 -1798 
271017.367900 292817.048900 25.603300 -1798 
271017.252899 292816.828900 25.603300 -1798 
271019.582900 292815.428900 25.553300 -1798 
271017.562900 292816.893901 25.598300 -1798 
271017.837900 292816.873900 25.593300 -1798 
271018.137901 292816.253899 25.588300 -1798 
271017.737899 292817.208899 25.603300 -1798 
271017.882900 292816.613900 25.593300 -1798 
271017.712900 292816.703900 25.598300 -1798 
271018.707900 292815.968900 25.573300 -1798 
271017.437900 292816.838900 25.598300 -1798 
271017.292900 292817.083899 25.608300 -1798 
271019.737899 292815.518900 25.553300 -1798 
271017.392902 292816.613900 25.603300 -1798 
271017.252899 292817.093900 25.608300 -1798 
271017.902900 292816.458899 25.593300 -1798 
271017.467899 292816.718900 25.598300 -1798 
271017.402900 292817.053901 25.598300 -1798 
271017.427902 292816.883901 25.598300 -1798 
271019.942899 292815.648900 25.548300 -1798 
271019.222900 292815.878899 25.563300 -1798 
271019.287900 292815.638900 25.563300 -1798 
271017.692899 292816.768901 25.598300 -1798 
271019.727901 292815.638900 25.553300 -1798 
271019.607900 292815.598900 25.553300 -1798 
271017.542900 292817.008901 25.598300 -1798 
271019.587900 292815.993899 25.563300 -1798 
271018.172901 292816.223901 25.588300 -1798 
271017.002899 292817.188901 25.613300 -1798 
271017.322898 292817.148900 25.608300 -1798 
271017.402900 292817.028899 25.598300 -1798 
271018.182901 292816.138900 25.588300 -1798 
271017.462902 292817.118899 25.603300 -1798 
271017.767900 292817.193900 25.603300 -1798 
271019.277900 292815.703900 25.563300 -1798 
271017.332900 292817.023900 25.603300 -1798 
271018.312900 292817.093900 25.598300 -160 
271017.187900 292816.948899 25.598300 -1798 
271017.737899 292817.228900 25.603300 -1798 
271017.592899 292817.113900 25.603300 -1798 
271017.672901 292816.493899 25.598300 -1798 
271019.327899 292815.708899 25.563300 -1798 
271017.092899 292817.068900 25.608300 -1798 
271017.932901 292816.458899 25.588300 -1798 
271017.097900 292817.038899 25.603300 -1798 
271019.897899 292816.203900 25.558300 0 
271017.827899 292816.918900 25.593300 -1798 
271017.622901 292817.198899 25.603300 -1798 
271019.907899 292815.413900 25.548300 -1798 
271017.007900 292817.078900 25.613300 -1798 
271017.882900 292816.378899 25.593300 -1798 
271017.262901 292816.963900 25.598300 -1798 
271019.832900 292815.378900 25.548300 -1798 
271019.732900 292815.748900 25.553300 -1798 
271019.557901 292815.618900 25.558300 -1798 
271019.932901 292815.728900 25.548300 -1798 
271017.212902 292817.113900 25.608300 -1798 
271017.142902 292816.993899 25.603300 -1798 
271017.312900 292816.903899 25.598300 -1798 
271017.157901 292816.698899 25.603300 -1798 
271018.147899 292816.333899 25.593300 -1798 
271017.642902 292816.478900 25.598300 -1798 
271018.057901 292816.428901 25.588300 -1798 
271019.582900 292815.588900 25.553300 -1798 
271019.762901 292815.868899 25.553300 -1798 
271017.207900 292817.238900 25.608300 -1798 
271018.937900 292816.418900 25.573300 0 
271017.887901 292816.478900 25.593300 -1798 
271017.072898 292816.868899 25.603300 -1798 
271019.972900 292815.628900 25.548300 -1798 
271017.662900 292816.433900 25.598300 -1798 
271017.682901 292816.908900 25.593300 -1798 
271017.647899 292816.488900 25.598300 0 
271018.807901 292815.878899 25.573300 -1798 
271017.707900 292817.238900 25.603300 -1798 
271016.252899 292817.188901 25.623300 -1798 
271017.722900 292816.533900 25.593300 -1798 
271017.912900 292816.438901 25.588300 -1798 
271017.747899 292816.908900 25.598300 -1798 
271019.322900 292815.833899 25.563300 -1798 
271018.967901 292815.733901 25.568300 -1798 
271018.872899 292815.833899 25.568300 -1798 
271017.122901 292816.853900 25.603300 -1798 
271019.742900 292815.788899 25.553300 -1798 
271017.747899 292816.618899 25.598300 -1798 
271016.727901 292817.198899 25.618300 -1798 
271018.292900 292816.153899 25.583300 -1798 
271019.962900 292815.338900 25.548300 -1798 
271017.767900 292816.943900 25.598300 -1798 
271019.417900 292815.908900 25.563300 -1798 
271018.037900 292816.278899 25.593300 -1798 
271019.112899 292815.903899 25.568300 -1798 
271019.582900 292815.863900 25.558300 -1798 
271017.927900 292816.583899 25.593300 -1798 
271019.337900 292815.808900 25.563300 -1798 
271016.827899 292817.183900 25.618300 -1798 
271019.237899 292815.823899 25.563300 -1798 
271019.917900 292815.993899 25.553300 -1798 
271019.412900 292815.848901 25.563300 -1798 
271019.472900 292815.833899 25.563300 -1798 
271017.777900 292817.058900 25.598300 -1798 
271019.692899 292815.938901 25.558300 -1798 
271019.952899 292815.738900 25.548300 -1798 
271017.022899 292816.913899 25.603300 -1798 
271019.947900 292816.208899 25.558300 -1798 
271018.812900 292815.848901 25.568300 -1798 
271019.867900 292816.108901 25.553300 -1798 
271019.327899 292815.673900 25.563300 -1798 
271016.932899 292816.903899 25.603300 -1798 
271019.027900 292815.848901 25.568300 -1798 
271019.512901 292815.743899 25.558300 -1798 
271017.812900 292816.373900 25.593300 -1798 
271018.232900 292816.168900 25.588300 0 
271017.087902 292817.093900 25.608300 -1798 
271018.097900 292816.173900 25.588300 -1798 
271017.287898 292816.678901 25.603300 -1798 
271017.977901 292816.303901 25.593300 -1798 
271017.362899 292817.073899 25.608300 -1798 
271017.347900 292816.923900 25.598300 -1798 
271018.232900 292816.128899 25.583300 -1798 
271019.122899 292815.818900 25.563300 -1798 
271017.527900 292817.128899 25.603300 -1798 
271019.822900 292816.043900 25.558300 -1798 
271018.912900 292815.918900 25.568300 -1798 
271019.067899 292815.873900 25.568300 -1798 
271017.587902 292816.513900 25.598300 -1798 
271019.927900 292815.923900 25.553300 -1798 
271019.677900 292815.413900 25.548300 -1798 
271017.772899 292816.923900 25.593300 -1798 
271017.432899 292816.613900 25.598300 -1798 
271019.717901 292815.813901 25.553300 -1798 
271019.642900 292815.663899 25.553300 0 
271018.847900 292815.928901 25.573300 -1798 
271016.672901 292817.058900 25.613300 -1798 
271018.747899 292815.953900 25.573300 -1798 
271017.237899 292816.718900 25.598300 -1798 
271017.837900 292816.998900 25.598300 0 
271019.752901 292815.933900 25.558300 -1798 
271019.877901 292816.078900 25.553300 -1798 
271018.767900 292815.948899 25.573300 -1798 
271019.952899 292815.698899 25.553300 -1798 
271019.727901 292816.058900 25.558300 -1798 
271019.332900 292815.638900 25.563300 -1798 
271019.607900 292815.633900 25.553300 -1798 
271019.222900 292815.763900 25.563300 -1798 
271017.087902 292817.148900 25.608300 -1798 
271019.567899 292815.793900 25.558300 -1798 
271018.322900 292816.098901 25.583300 -1798 
271017.812900 292816.698899 25.598300 -1798 
271017.092899 292816.793900 25.603300 -1798 
271016.672901 292817.153899 25.618300 -1798 
271017.002899 292817.088900 25.613300 0 
271017.752901 292816.798900 25.598300 0 
271019.782899 292815.538900 25.548300 -1798 
271017.047901 292817.223901 25.608300 -1798 
271019.132900 292815.723901 25.563300 -1798 
271017.742900 292816.713900 25.598300 -1798 
271018.922901 292815.773900 25.568300 -1798 
271017.577899 292816.533900 25.598300 -1798 
271019.992900 292815.638900 25.548300 -1798 
271017.577899 292816.708899 25.598300 -1798 
271017.217899 292817.058900 25.603300 -1798 
271018.407899 292816.108901 25.578300 -1798 
271019.792900 292815.623900 25.553300 -1798 
271019.547901 292815.683900 25.558300 -1798 
271018.457900 292816.013900 25.578300 -1798 
271019.822900 292815.753899 25.553300 -1798 
271017.652900 292816.453900 25.598300 -1798 
271017.687900 292816.788899 25.598300 -1798 
271017.957900 292816.478900 25.593300 -1798 
271017.792900 292816.678901 25.598300 -1798 
271017.872899 292816.448899 25.593300 -1798 
271014.376201 292819.719899 25.670500 -1798 
271019.816200 292818.134900 25.570500 0 
271018.591199 292819.604899 25.615500 -1798 
271016.776199 292818.494901 25.625500 -1798 
271017.601200 292817.964900 25.615500 -1798 
271017.616199 292819.149899 25.625500 -1798 
271017.466201 292817.604899 25.615500 -1798 
271018.196201 292819.794900 25.615500 -1798 
271015.136199 292819.069899 25.645500 -1798 
271019.221200 292818.824901 25.595500 -1798 
271019.571201 292818.759900 25.580500 -1798 
271019.016200 292818.964900 25.595500 -1798 
271014.816200 292818.624900 25.655500 -1798 
271018.651201 292818.484900 25.605500 -1798 
271018.046199 292818.009900 25.605500 -1798 
271018.006200 292818.629901 25.605500 -1798 
271017.881200 292819.154900 25.615500 -1798 
271018.871200 292818.989900 25.605500 -1798 
271017.881200 292819.519900 25.625500 -1798 
271017.456199 292817.904900 25.615500 -1798 
271017.756200 292818.614900 25.615500 -1798 
271018.271200 292818.239900 25.605500 -1798 
271015.671199 292818.804900 25.635500 -1798 
271018.426200 292819.074901 25.605500 -1798 
271017.536201 292817.604899 25.615500 -1798 
271019.186201 292818.669900 25.595500 -1798 
271017.311199 292818.309899 25.625500 -1798 
271017.381198 292818.569899 25.625500 -1798 
271018.746200 292818.569899 25.595500 -1798 
271017.141200 292818.194899 25.625500 -1798 
271018.036201 292819.474900 25.625500 -1798 
271015.196201 292819.484900 25.655500 -1798 
271019.111200 292819.614900 25.605500 -1798 
271019.771200 292819.004901 25.580500 -1798 
271016.466201 292818.454900 25.630500 -1798 
271017.491199 292818.219899 25.615500 -1798 
271019.076200 292819.369901 25.605500 -1798 
271014.651199 292819.454900 25.665500 -1798 
271018.431199 292818.544900 25.605500 -1798 
271017.991201 292818.954900 25.615500 -1798 
271018.831199 292819.704900 25.615500 -1798 
271017.241199 292818.194899 25.625500 -1798 
271017.511199 292817.944899 25.615500 -1798 
271017.601200 292817.439900 25.605500 -1798 
271013.501201 292819.929900 25.690500 -1798 
271018.106201 292818.164901 25.605500 -1798 
271017.801200 292817.994901 25.615500 -1798 
271017.211200 292818.409900 25.625500 -1798 
271019.186201 292819.109900 25.605500 -1798 
271019.191200 292819.669900 25.605500 -1798 
271019.416200 292819.259900 25.595500 -1798 
271017.006198 292819.059899 25.625500 -1798 
271017.956199 292819.199901 25.615500 -1798 
271018.206199 292818.184899 25.605500 -1798 
271017.426200 292817.344899 25.615500 -1798 
271016.076202 292817.639899 25.630500 -1798 
271017.681199 292818.109900 25.615500 -1798 
271017.311199 292817.704900 25.615500 -1798 
271016.291198 292817.664901 25.630500 -1798 
271017.121200 292818.449901 25.625500 -1798 
271017.666200 292817.799901 25.615500 -1798 
271017.871200 292819.579900 25.625500 -1798 
271017.531200 292819.769900 25.625500 -1798 
271018.561201 292819.599900 25.615500 -1798 
271018.676200 292818.609900 25.605500 -1798 
271019.521200 292818.579900 25.580500 -1798 
271019.216199 292818.994901 25.595500 -1798 
271019.841199 292818.974900 25.580500 -1798 
271017.911201 292818.449901 25.605500 -1798 
271016.491199 292818.959901 25.630500 -1798 
271018.396200 292818.669900 25.605500 -1798 
271018.176200 292818.424901 25.605500 -1798 
271012.381198 292819.519900 25.715500 -1798 
271016.291198 292817.629901 25.630500 -1798 
271018.861200 292819.059899 25.605500 -1798 
271016.616199 292819.134900 25.630500 -1798 
271016.266200 292819.079900 25.635500 -1798 
271016.346198 292818.704900 25.635500 -1798 
271015.961200 292819.329900 25.635500 -1798 
271018.476200 292818.469899 25.605500 -1798 
271013.486202 292819.324901 25.680500 -1798 
271016.271202 292817.904900 25.630500 -1798 
271015.056201 292819.219899 25.655500 -1798 
271016.946201 292818.979899 25.625500 -1798 
271016.786201 292817.434899 25.625500 -1798 
271017.556201 292817.329900 25.615500 -1798 
271017.416198 292817.924901 25.615500 0 
271017.121200 292817.919900 25.625500 -1798 
271019.111200 292818.764899 25.595500 -1798 
271016.286201 292819.594899 25.635500 -1798 
271017.156200 292818.219899 25.625500 -1798 
271017.441200 292817.759900 25.615500 -1798 
271015.926200 292817.704900 25.635500 -1798 
271017.936201 292818.429900 25.605500 -1798 
271014.091201 292819.089900 25.665500 -1798 
271019.501199 292818.779900 25.580500 -1798 
271016.226200 292817.669900 25.630500 -1798 
271018.876199 292819.024899 25.605500 -1798 
271017.956199 292819.694899 25.625500 -1798 
271018.106201 292819.019900 25.615500 -1798 
271018.916200 292819.499900 25.605500 -1798 
271017.096198 292817.419900 25.615500 -1798 
271017.556201 292817.669900 25.615500 -1798 
271018.686201 292818.464900 25.605500 -1798 
271018.436201 292819.034900 25.605500 -1798 
271015.916198 292817.594899 25.635500 -1798 
271018.306199 292818.444899 25.605500 -1798 
271017.716199 292818.629901 25.615500 -1798 
271016.826202 292819.859900 25.630500 -1798 
271017.041198 292817.284900 25.615500 -1798 
271012.681201 292819.414901 25.705500 -1798 
271018.371200 292818.659900 25.605500 -1798 
271018.551200 292819.489900 25.615500 -1798 
271019.966199 292819.469899 25.580500 -1798 
271019.341199 292819.554900 25.595500 -1798 
271016.611202 292817.944899 25.625500 -1798 
271017.581199 292818.074901 25.615500 -1798 
271018.131200 292818.109900 25.605500 -1798 
271017.441200 292819.889899 25.625500 -1798 
271018.211200 292818.564900 25.605500 -1798 
271016.816200 292817.874900 25.625500 -1798 
271017.651199 292817.994901 25.615500 -1798 
271018.346200 292819.719899 25.615500 -1798 
271014.521202 292819.969899 25.670500 -1798 
271016.361202 292818.199901 25.630500 -1798 
271017.126201 292817.289901 25.615500 -1798 
271017.881200 292819.209901 25.615500 -1798 
271018.961200 292819.364900 25.605500 -1798 
271017.981201 292819.924901 25.625500 -1798 
271018.146200 292818.359900 25.605500 -1798 
271018.506200 292819.704900 25.615500 -1798 
271017.136199 292817.659900 25.615500 -1798 
271017.801200 292818.984900 25.615500 -1798 
271019.366201 292817.284900 25.580500 0 
271016.866199 292818.874900 25.625500 -1798 
271017.586200 292817.759900 25.615500 -1798 
271019.466199 292819.084901 25.595500 -1798 
271016.616199 292819.394900 25.630500 -1798 
271019.726200 292819.439900 25.585500 -1798 
271017.586200 292818.549901 25.615500 -1798 
271019.671199 292819.039901 25.580500 -1798 
271017.986200 292818.614900 25.605500 -1798 
271018.416200 292818.949901 25.605500 -1798 
271016.871200 292818.549901 25.625500 -1798 
271019.096200 292819.779900 25.605500 -1798 
271019.471200 292819.209901 25.595500 -1798 
271017.661201 292819.319899 25.625500 -1798 
271017.431201 292817.389899 25.615500 -1798 
271016.111202 292818.809899 25.635500 -1798 
271017.596198 292818.364900 25.615500 -1798 
271015.891200 292819.129901 25.635500 -160 
271018.161201 292818.489900 25.605500 -1798 
271017.946201 292818.974900 25.615500 -1798 
271018.431199 292819.409900 25.615500 -1798 
271017.541198 292819.379901 25.625500 -1798 
271018.101200 292819.444899 25.615500 -1798 
271017.276199 292818.919900 25.625500 -1798 
271017.126201 292818.044900 25.625500 -1798 
271017.441200 292819.304900 25.625500 -1798 
271017.981201 292819.509900 25.625500 -1798 
271017.791200 292817.309899 25.605500 -1798 
271017.156200 292817.554900 25.615500 -1798 
271017.646202 292817.319899 25.605500 -1798 
271017.891200 292819.334901 25.625500 -1798 
271017.846200 292818.229899 25.615500 -1798 
271015.761199 292819.859900 25.645500 -1798 
271017.296199 292818.289901 25.625500 -1798 
271017.821201 292818.569899 25.615500 -1798 
271016.386199 292819.929900 25.635500 -160 
271018.331199 292818.789901 25.605500 -1798 
271018.411201 292819.619901 25.615500 -1798 
271017.996200 292818.029900 25.605500 -1798 
271019.191200 292819.559899 25.605500 -1798 
271017.156200 292818.864900 25.625500 -1798 
271016.316200 292818.279900 25.630500 -1798 
271018.021200 292818.419900 25.605500 -1798 
271019.976200 292819.699901 25.595500 -1798 
271016.646202 292817.849900 25.625500 -1798 
271016.866199 292819.204900 25.625500 -1798 
271016.711200 292819.879901 25.635500 -1798 
271017.651199 292817.344899 25.605500 -1798 
271019.636199 292819.789901 25.595500 -1798 
271019.041200 292819.894900 25.605500 -1798 
271019.576200 292818.979899 25.585500 -1798 
271016.106201 292818.389899 25.635500 -1798 
271018.476200 292818.404900 25.605500 -1798 
271019.436201 292818.729899 25.585500 -1798 
271017.521202 292817.669900 25.615500 -1798 
271017.161201 292818.019900 25.625500 -1798 
271012.091201 292819.724900 25.725500 -1798 
271016.071201 292817.604899 25.630500 -1798 
271016.451202 292818.894900 25.630500 -1798 
271017.541198 292817.834901 25.615500 -1798 
271018.931199 292819.949901 25.615500 -1798 
271013.876201 292819.084901 25.670500 -1798 
271018.611200 292819.404900 25.615500 -1798 
271017.301200 292818.864900 25.625500 -1798 
271018.181199 292818.274899 25.605500 -1798 
271018.596200 292818.549901 25.605500 -1798 
271015.271202 292817.894900 25.635500 -1798 
271015.736202 292819.604899 25.635500 -1798 
271016.786201 292818.874900 25.630500 -1798 
271015.951202 292817.854899 25.635500 -1798 
271015.566200 292817.784900 25.635500 -1798 
271017.416198 292818.614900 25.625500 -1798 
271016.121200 292819.014899 25.635500 -1798 
271019.801200 292818.864900 25.580500 -1798 
271017.851200 292818.289901 25.615500 -1798 
271017.656200 292818.684899 25.615500 -1798 
271016.476200 292819.074901 25.630500 -1798 
271016.696201 292819.479899 25.630500 -1798 
271018.501199 292818.789901 25.605500 -1798 
271017.606201 292818.949901 25.625500 -1798 
271018.351200 292819.134900 25.615500 -1798 
271016.566200 292817.994901 25.625500 -1798 
271017.396202 292817.404900 25.615500 -1798 
271019.256200 292818.724900 25.595500 -1798 
271014.996200 292819.084901 25.655500 -1798 
271017.216201 292817.424901 25.615500 -1798 
271017.441200 292819.624900 25.625500 -1798 
271018.096200 292819.559899 25.625500 -1798 
271017.726200 292818.299901 25.615500 -1798 
271019.596200 292819.019900 25.580500 -1798 
271017.166198 292817.294900 25.615500 -1798 
271015.301200 292818.804900 25.645500 -1798 
271019.791200 292818.949901 25.580500 -1798 
271016.636199 292817.494901 25.625500 -1798 
271019.871200 292819.614900 25.595500 -1798 
271019.791200 292818.994901 25.580500 -1798 
271016.416198 292817.604899 25.625500 -1798 
271019.216199 292818.789901 25.595500 -1798 
271018.511199 292819.064900 25.605500 -1798 
271019.866201 292818.964900 25.580500 -1798 
271018.191200 292818.754901 25.605500 -1798 
271017.991201 292819.059899 25.615500 -1798 
271016.866199 292817.674901 25.625500 -1798 
271019.676200 292818.874900 25.580500 -1798 
271016.431201 292817.704900 25.625500 -1798 
271017.561199 292817.574901 25.615500 -1798 
271017.516200 292819.359900 25.625500 -1798 
271016.761199 292818.464900 25.625500 -1798 
271019.596200 292818.754901 25.580500 -1798 
271015.941200 292818.894900 25.635500 -1798 
271018.276201 292819.104899 25.615500 -1798 
271019.126199 292819.959901 25.605500 -1798 
271016.781200 292817.404900 25.625500 -1798 
271018.271200 292818.454900 25.605500 -1798 
271019.731201 292818.779900 25.580500 -1798 
271019.151201 292819.034900 25.605500 -1798 
271014.231201 292818.924901 25.665500 -1798 
271019.131200 292819.114900 25.605500 -1798 
271017.911201 292818.009900 25.605500 -1798 
271019.281200 292819.269900 25.595500 -1798 
271019.711200 292819.244901 25.580500 -1798 
271016.626201 292819.534900 25.630500 -1798 
271017.476200 292818.479899 25.625500 -1798 
271018.861200 292819.399899 25.605500 -1798 
271017.856201 292818.859900 25.615500 -1798 
271017.481201 292817.504901 25.615500 -1798 
271015.731201 292819.154900 25.635500 -1798 
271019.806199 292818.629901 25.580500 -1798 
271016.831199 292817.364900 25.625500 -1798 
271017.956199 292818.354899 25.605500 -1798 
271014.826202 292819.064900 25.655500 -1798 
271019.721200 292819.834901 25.595500 -1798 
271019.941200 292818.474900 25.580500 -1798 
271019.461200 292818.539901 25.580500 -1798 
271017.746200 292819.309899 25.625500 -1798 
271018.286201 292819.964900 25.625500 -1798 
271019.101200 292818.929900 25.605500 -1798 
271018.061201 292819.039901 25.615500 0 
271018.036201 292818.384900 25.605500 -1798 
271017.681199 292818.354899 25.615500 -1798 
271018.601200 292819.129901 25.605500 -1798 
271016.891200 292817.949901 25.625500 -1798 
271017.296199 292819.699901 25.625500 -1798 
271019.461200 292818.724900 25.580500 -1798 
271018.801200 292818.869901 25.605500 -1798 
271017.081199 292819.174901 25.625500 0 
271013.306201 292819.504901 25.690500 -1798 
271017.071201 292819.519900 25.625500 -1798 
271018.386199 292819.554900 25.615500 -1798 
271017.136199 292819.474900 25.625500 -1798 
271017.666200 292819.124900 25.625500 -1798 
271019.046199 292819.724900 25.605500 -1798 
271017.596198 292818.169900 25.615500 -1798 
271017.436199 292818.564900 25.625500 -1798 
271016.516200 292817.809899 25.625500 -1798 
271019.661201 292819.499900 25.595500 -1798 
271018.701200 292819.284900 25.605500 -1798 
271019.001199 292819.114900 25.605500 -1798 
271017.761199 292818.449901 25.615500 -1798 
271017.466201 292817.389899 25.615500 -1798 
271017.981201 292819.444899 25.625500 -1798 
271017.336200 292818.099900 25.625500 -1798 
271017.916200 292819.289901 25.615500 -1798 
271017.176200 292819.064900 25.625500 -1798 
271017.626201 292817.689900 25.615500 -1798 
271017.836200 292818.429900 25.615500 -1798 
271017.616199 292818.274899 25.615500 -1798 
271016.756198 292818.329900 25.625500 -1798 
271018.656200 292818.699901 25.605500 -1798 
271017.051200 292817.839900 25.625500 -1798 
271018.336200 292818.569899 25.605500 -1798 
271017.586200 292819.339900 25.625500 -1798 
271019.791200 292818.829900 25.580500 -1798 
271017.221198 292817.809899 25.625500 -1798 
271017.686201 292818.774899 25.615500 -1798 
271017.821201 292818.034900 25.615500 -1798 
271017.776201 292818.249900 25.615500 -1798 
271016.886199 292818.339900 25.625500 -1798 
271015.701202 292818.339900 25.635500 -1798 
271017.211200 292817.909900 25.625500 -1798 
271017.616199 292819.224900 25.625500 -1798 
271017.961200 292818.029900 25.605500 -1798 
271017.811201 292817.584901 25.615500 -1798 
271018.231201 292818.864900 25.605500 -1798 
271018.016200 292818.099900 25.605500 -1798 
271014.431201 292819.819899 25.665500 -1798 
271019.921199 292818.609900 25.580500 -1798 
271017.766200 292818.289901 25.615500 -1798 
271015.591201 292818.884900 25.635500 -1798 
271017.891200 292818.434899 25.605500 -1798 
271017.211200 292818.014899 25.625500 -1798 
271018.941200 292819.189900 25.605500 -1798 
271018.771200 292818.969899 25.605500 -1798 
271015.291198 292819.909900 25.655500 -1798 
271017.761199 292817.494901 25.605500 -1798 
271015.561199 292818.504901 25.635500 -160 
271012.396202 292819.594899 25.715500 -1798 
271018.936201 292819.829900 25.605500 -1798 
271019.276201 292818.599900 25.595500 -1798 
271016.826202 292819.614900 25.630500 -1798 
271016.711200 292818.059899 25.625500 -1798 
271019.656200 292819.214900 25.585500 -1798 
271017.111202 292819.859900 25.630500 -1798 
271019.656200 292818.699901 25.580500 -1798 
271017.636199 292819.589900 25.625500 -1798 
271019.416200 292819.824901 25.595500 -1798 
271018.351200 292819.979899 25.625500 -1798 
271017.221198 292818.339900 25.625500 -1798 
271017.386199 292818.014899 25.615500 -1798 
271017.616199 292818.064900 25.615500 -1798 
271017.386199 292817.544900 25.615500 -1798 
271017.836200 292819.939900 25.625500 -1798 
271019.891200 292819.444899 25.580500 -1798 
271016.936199 292818.319899 25.625500 -1798 
271018.121200 292819.574901 25.615500 -1798 
271017.156200 292818.779900 25.625500 -1798 
271017.466201 292818.884900 25.625500 -1798 
271018.671199 292819.919900 25.615500 -1798 
271019.091199 292818.584901 25.595500 -1798 
271015.881198 292818.279900 25.635500 -1798 
271019.721200 292818.819899 25.580500 -1798 
271018.301200 292819.524899 25.615500 -1798 
271019.921199 292819.169900 25.580500 -1798 
271017.551200 292819.539901 25.625500 -1798 
271017.636199 292819.169900 25.625500 -1798 
271014.886199 292818.389899 25.655500 -1798 
271016.771202 292818.354899 25.625500 -1798 
271018.806199 292818.834901 25.605500 -1798 
271019.286201 292819.409900 25.595500 -1798 
271018.951200 292817.744901 25.595500 0 
271017.891200 292818.479899 25.615500 -1798 
271019.436201 292819.344899 25.595500 -1798 
271017.806199 292817.439900 25.605500 -1798 
271017.151199 292818.679900 25.625500 -1798 
271016.076202 292818.534900 25.635500 -1798 
271015.141200 292819.964900 25.655500 -1798 
271017.711200 292818.039901 25.615500 -1798 
271019.971200 292818.739900 25.580500 -1798 
271016.826202 292818.344899 25.625500 -1798 
271019.746200 292818.809899 25.580500 -1798 
271017.261199 292817.804900 25.615500 -1798 
271016.466201 292819.494901 25.635500 -1798 
271017.106201 292817.499900 25.615500 -1798 
271017.561199 292817.694899 25.615500 -1798 
271019.166200 292818.999900 25.595500 -1798 
271018.181199 292818.504901 25.605500 -1798 
271016.881198 292817.734900 25.625500 -1798 
271018.691200 292818.809899 25.605500 -1798 
271019.526201 292819.584901 25.595500 -1798 
271016.951202 292818.234900 25.625500 -1798 
271016.186199 292818.124900 25.630500 -1798 
271018.236200 292819.879901 25.625500 -1798 
271018.101200 292819.384900 25.615500 -1798 
271017.061199 292818.349900 25.625500 -1798 
271015.846198 292818.444899 25.635500 -1798 
271012.036201 292819.579900 25.725500 -1798 
271018.776201 292818.864900 25.605500 -1798 
271016.476200 292818.114900 25.630500 -1798 
271019.071201 292818.729899 25.605500 -1798 
271016.066200 292819.839900 25.635500 -1798 
271019.936201 292819.174901 25.580500 0 
271019.521200 292818.609900 25.580500 -1798 
271017.671199 292817.629901 25.615500 -1798 
271019.896200 292818.659900 25.580500 -1798 
271016.386199 292818.264899 25.630500 -1798 
271018.486200 292818.384900 25.595500 -1798 
271018.446201 292819.264899 25.615500 -1798 
271017.696201 292818.959901 25.615500 -1798 
271017.531200 292817.809899 25.615500 -1798 
271017.331199 292819.459901 25.625500 -1798 
271017.266200 292817.504901 25.615500 -1798 
271018.251199 292818.444899 25.605500 -1798 
271017.796199 292818.599900 25.615500 -1798 
271018.081199 292818.099900 25.605500 -1798 
271017.116199 292818.344899 25.625500 -1798 
271016.086200 292819.139899 25.635500 -1798 
271016.881198 292817.919900 25.625500 -1798 
271019.081199 292818.554900 25.595500 -1798 
271017.696201 292818.314900 25.615500 -1798 
271017.666200 292818.334901 25.615500 -1798 
271019.351200 292818.559899 25.585500 -1798 
271019.191200 292818.959901 25.595500 -1798 
271017.791200 292818.864900 25.615500 -1798 
271018.656200 292819.854899 25.615500 -1798 
271018.326200 292818.524899 25.605500 -1798 
271018.171199 292818.224900 25.605500 -1798 
271019.031200 292819.414901 25.605500 -1798 
271016.716201 292817.884900 25.625500 -1798 
271019.246200 292818.924901 25.595500 -1798 
271016.051200 292817.464900 25.630500 -1798 
271017.001201 292817.649899 25.625500 -1798 
271017.666200 292818.219899 25.615500 -1798 
271017.811201 292817.899899 25.615500 -1798 
271016.636199 292819.949901 25.635500 -1798 
271018.611200 292818.689900 25.605500 -1798 
271016.511199 292818.209901 25.630500 -1798 
271016.271202 292819.729899 25.635500 -1798 
271016.626201 292817.344899 25.625500 -1798 
271019.486200 292818.889899 25.585500 -1798 
271019.011199 292819.274899 25.605500 -1798 
271019.231201 292819.719899 25.605500 -1798 
271018.201200 292818.479899 25.605500 -1798 
271017.836200 292818.324901 25.615500 -1798 
271017.811201 292818.014899 25.615500 -1798 
271018.241201 292818.364900 25.605500 -1798 
271016.781200 292817.379901 25.625500 -1798 
271016.041198 292817.284900 25.630500 -1798 
271014.251201 292818.394900 25.665500 -1798 
271015.766200 292818.219899 25.635500 -1798 
271018.096200 292819.499900 25.625500 -1798 
271019.291200 292818.784900 25.595500 -1798 
271015.981201 292817.494901 25.630500 -1798 
271016.286201 292818.934899 25.635500 -1798 
271018.826200 292819.094899 25.605500 -1798 
271016.381198 292818.024899 25.630500 -1798 
271018.806199 292819.439900 25.605500 -1798 
271019.316200 292818.989900 25.595500 -1798 
271017.286201 292819.339900 25.625500 -1798 
271015.671199 292817.834901 25.635500 -1798 
271015.771202 292818.529900 25.635500 -1798 
271014.201202 292819.354899 25.670500 -1798 
271017.356201 292819.564900 25.625500 -1798 
271017.496200 292818.149899 25.615500 -1798 
271017.661201 292817.454900 25.605500 -1798 
271018.001199 292818.179900 25.605500 -1798 
271019.546199 292819.149899 25.585500 -1798 
271017.461200 292817.314900 25.615500 -1798 
271017.181201 292818.269900 25.625500 -1798 
271019.751199 292819.429900 25.585500 -1798 
271018.711200 292819.034900 25.605500 -1798 
271019.211200 292819.364900 25.605500 -1798 
271018.441200 292819.124900 25.605500 -1798 
271017.811201 292817.459901 25.605500 -1798 
271016.981201 292817.749900 25.625500 -1798 
271018.576200 292818.644900 25.605500 -1798 
271018.056199 292818.624900 25.605500 -1798 
271017.791200 292818.104899 25.615500 -1798 
271017.461200 292817.714900 25.615500 -1798 
271016.801200 292819.474900 25.630500 -1798 
271019.411201 292818.939900 25.585500 -1798 
271017.976200 292817.899899 25.605500 -1798 
271016.896202 292817.789901 25.625500 -1798 
271014.156200 292819.249900 25.670500 -1798 
271017.171199 292817.369901 25.615500 -1798 
271017.991201 292819.334901 25.615500 -1798 
271018.301200 292818.734900 25.605500 -1798 
271017.526199 292818.134900 25.615500 0 
271018.466199 292819.224900 25.605500 -1798 
271017.091201 292818.294900 25.625500 -1798 
271014.731201 292818.339900 25.655500 -1798 
271015.246200 292819.284900 25.645500 -1798 
271018.041200 292818.839900 25.615500 -1798 
271017.731201 292818.474900 25.615500 -1798 
271017.016200 292818.369901 25.625500 -1798 
271014.256198 292818.704900 25.665500 0 
271019.146200 292818.639899 25.595500 -1798 
271017.791200 292818.269900 25.615500 -1798 
271019.511199 292818.919900 25.585500 -1798 
271017.476200 292817.479899 25.615500 -1798 
271019.306199 292819.314900 25.595500 -1798 
271017.156200 292817.734900 25.625500 -1798 
271016.256198 292817.329900 25.625500 -1798 
271018.016200 292818.774899 25.615500 -1798 
271013.231201 292819.319899 25.690500 -1798 
271019.401201 292819.549901 25.595500 -1798 
271017.791200 292818.329900 25.615500 -1798 
271019.971200 292819.764899 25.595500 -1798 
271017.606201 292818.819899 25.615500 -1798 
271017.181201 292818.549901 25.625500 -1798 
271018.466199 292819.134900 25.605500 -1798 
271017.761199 292819.009900 25.615500 -1798 
271018.716199 292818.624900 25.605500 -1798 
271019.931199 292819.649899 25.595500 -1798 
271016.666198 292818.094899 25.630500 -1798 
271017.221198 292819.459901 25.625500 -1798 
271018.331199 292818.674901 25.605500 -1798 
271019.336200 292819.179900 25.595500 -1798 
271018.101200 292818.569899 25.605500 -1798 
271018.376199 292819.059899 25.605500 -1798 
271014.061199 292819.529900 25.670500 -1798 
271016.096198 292819.554900 25.635500 -160 
271019.496200 292819.204900 25.595500 -1798 
271018.471200 292818.499900 25.605500 -1798 
271018.561201 292819.774899 25.615500 -1798 
271017.731201 292819.499900 25.625500 -1798 
271019.096200 292819.234900 25.605500 -1798 
271019.471200 292819.044900 25.595500 -1798 
271018.621200 292818.794900 25.605500 -1798 
271017.856201 292818.914901 25.615500 -1798 
271017.751199 292818.099900 25.615500 -1798 
271019.661201 292818.919900 25.580500 -1798 
271016.446201 292817.269900 25.625500 -1798 
271017.386199 292819.179900 25.625500 -1798 
271017.426200 292818.014899 25.615500 -1798 
271018.331199 292818.954900 25.605500 -1798 
271018.946201 292818.884900 25.605500 -1798 
271017.936201 292818.669900 25.615500 -1798 
271019.996200 292819.459901 25.580500 -1798 
271019.401201 292818.834901 25.585500 -1798 
271015.921199 292818.104899 25.630500 -1798 
271016.816200 292818.044900 25.625500 -1798 
271017.756200 292818.664901 25.615500 -1798 
271019.686201 292819.299901 25.585500 -1798 
271019.366201 292818.649899 25.585500 -1798 
271019.026201 292818.729899 25.595500 -1798 
271019.296199 292819.359900 25.595500 -1798 
271013.401199 292819.079900 25.680500 -1798 
271017.271202 292818.504901 25.625500 -1798 
271017.016200 292819.269900 25.625500 -1798 
271019.546199 292818.839900 25.585500 -1798 
271016.186199 292817.844899 25.630500 -1798 
271017.466201 292817.929900 25.615500 -1798 
271017.231201 292818.169900 25.625500 -1798 
271018.981201 292818.519900 25.595500 -1798 
271017.751199 292818.159900 25.615500 -1798 
271017.126201 292818.259900 25.625500 -1798 
271019.911201 292819.329900 25.580500 -1798 
271017.906200 292817.829900 25.605500 -1798 
271016.751201 292817.999900 25.625500 -1798 
271015.816200 292819.304900 25.635500 -1798 
271018.886199 292818.539901 25.595500 -1798 
271016.356201 292818.554900 25.635500 -1798 
271017.186199 292817.834901 25.625500 -1798 
271019.426200 292818.574901 25.585500 -1798 
271016.451202 292817.799901 25.625500 -1798 
271016.966201 292818.264899 25.625500 -1798 
271018.501199 292818.649899 25.605500 -1798 
271017.406200 292818.059899 25.625500 -1798 
271016.941200 292818.084901 25.625500 -1798 
271017.181201 292818.169900 25.625500 -1798 
271017.841199 292819.239900 25.625500 -1798 
271019.406200 292819.444899 25.595500 -1798 
271017.646202 292818.859900 25.615500 -1798 
271013.236202 292819.984900 25.700500 -1798 
271016.901199 292817.589900 25.625500 -1798 
271018.416200 292819.354899 25.615500 -1798 
271016.996200 292819.764899 25.630500 -1798 
271017.751199 292818.829900 25.615500 -1798 
271013.821201 292819.524899 25.680500 -1798 
271015.746200 292817.674901 25.635500 -1798 
271017.511199 292818.104899 25.615500 -1798 
271016.411201 292817.894900 25.630500 -1798 
271018.806199 292818.644900 25.605500 -1798 
271017.421199 292818.084901 25.625500 -1798 
271017.196201 292819.434899 25.625500 -1798 
271019.206199 292819.189900 25.605500 -1798 
271019.256200 292819.229899 25.605500 -1798 
271016.676200 292818.569899 25.630500 -1798 
271016.576202 292819.614900 25.630500 -1798 
271017.501201 292818.579900 25.625500 -1798 
271015.911201 292819.314900 25.635500 0 
271019.566200 292818.504901 25.580500 -1798 
271019.746200 292819.014899 25.580500 -1798 
271018.356201 292819.544900 25.615500 -1798 
271015.906200 292818.069899 25.630500 -1798 
271017.046199 292819.924901 25.630500 -1798 
271016.276199 292817.529900 25.630500 -1798 
271017.741201 292817.529900 25.615500 -1798 
271019.781200 292819.419900 25.585500 -1798 
271018.851200 292819.019900 25.605500 -1798 
271016.276199 292819.894900 25.635500 0 
271017.801200 292817.544900 25.605500 -1798 
271019.056199 292818.634900 25.605500 -1798 
271014.766200 292818.924901 25.655500 -1798 
271016.026199 292818.634900 25.635500 -1798 
271017.491199 292817.279900 25.615500 -1798 
271018.191200 292819.019900 25.605500 -1798 
271017.546199 292817.759900 25.615500 -1798 
271017.591201 292818.299901 25.615500 -1798 
271018.751199 292818.659900 25.605500 -1798 
271018.056199 292818.944899 25.615500 -1798 
271018.796199 292819.089900 25.605500 -1798 
271019.391200 292818.739900 25.585500 -1798 
271016.006198 292818.804900 25.635500 -1798 
271019.461200 292819.539901 25.595500 -1798 
271017.566200 292817.419900 25.615500 -1798 
271016.601200 292818.264899 25.630500 -1798 
271014.956199 292818.994901 25.655500 -1798 
271017.926200 292818.959901 25.615500 -1798 
271017.881200 292818.574901 25.615500 -1798 
271016.036201 292819.629901 25.635500 -1798 
271018.476200 292819.184899 25.605500 -1798 
271017.716199 292819.159900 25.625500 -1798 
271018.211200 292819.174901 25.615500 -1798 
271018.096200 292818.479899 25.605500 -1798 
271018.031200 292818.209901 25.605500 -1798 
271016.471198 292818.924901 25.630500 -1798 
271017.521202 292817.964900 25.615500 -1798 
271016.341201 292819.344899 25.635500 -1798 
271016.201202 292817.909900 25.630500 -1798 
271015.686199 292817.914901 25.635500 -1798 
271017.866201 292819.259900 25.625500 -1798 
271017.436199 292819.979899 25.625500 -1798 
271018.081199 292818.259900 25.605500 -1798 
271015.656200 292817.754901 25.630500 -1798 
271018.151201 292819.409900 25.615500 -1798 
271018.961200 292819.069899 25.605500 -1798 
271018.811201 292819.589900 25.605500 -1798 
271019.961200 292818.464900 25.580500 -1798 
271018.676200 292818.989900 25.605500 -1798 
271017.551200 292817.854899 25.615500 -1798 
271017.566200 292817.594899 25.615500 -1798 
271017.401199 292819.349900 25.625500 -1798 
271018.536201 292818.529900 25.605500 -1798 
271014.841201 292818.204900 25.645500 -1798 
271017.891200 292818.684899 25.605500 -1798 
271018.651201 292819.614900 25.615500 -1798 
271017.161201 292817.579900 25.615500 -1798 
271019.501199 292819.754901 25.595500 -1798 
271017.446201 292818.359900 25.625500 -1798 
271018.831199 292819.644900 25.615500 -1798 
271016.551200 292819.449901 25.630500 -1798 
271018.211200 292819.609900 25.615500 -1798 
271018.191200 292818.884900 25.605500 -1798 
271017.266200 292818.139899 25.625500 -1798 
271017.426200 292817.569899 25.615500 -1798 
271018.771200 292818.794900 25.605500 -1798 
271017.896200 292818.634900 25.615500 -1798 
271018.111200 292818.534900 25.605500 -1798 
271018.836200 292818.679900 25.605500 -1798 
271018.826200 292819.019900 25.605500 -1798 
271019.576200 292818.439900 25.580500 -1798 
271018.271200 292818.279900 25.605500 -1798 
271017.046199 292819.009900 25.625500 -1798 
271019.376199 292819.769900 25.605500 -1798 
271019.596200 292819.099900 25.580500 -1798 
271016.506198 292818.374900 25.630500 -1798 
271019.141200 292819.319899 25.605500 -1798 
271017.281200 292818.434899 25.625500 -1798 
271017.241199 292819.564900 25.625500 -1798 
271019.831199 292819.359900 25.580500 -1798 
271017.126201 292817.264899 25.615500 -1798 
271016.461200 292817.829900 25.630500 -1798 
271013.086200 292819.674901 25.700500 -1798 
271016.466201 292818.279900 25.630500 -1798 
271019.176200 292819.509900 25.605500 -1798 
271019.636199 292818.634900 25.580500 -1798 
271019.231201 292818.609900 25.585500 -1798 
271019.176200 292819.189900 25.605500 -1798 
271016.851200 292817.989900 25.625500 -1798 
271018.716199 292819.329900 25.605500 -1798 
271017.351200 292819.739900 25.625500 -1798 
271017.986200 292818.254901 25.605500 -1798 
271015.291198 292818.019900 25.635500 -1798 
271019.086200 292819.414901 25.605500 -1798 
271015.321201 292819.954900 25.655500 -1798 
271018.516200 292818.459901 25.605500 -1798 
271016.106201 292819.534900 25.635500 -1798 
271018.251199 292819.749900 25.615500 -1798 
271019.851200 292818.569899 25.580500 -1798 
271014.396202 292818.289901 25.655500 -1798 
271017.566200 292819.114900 25.625500 -1798 
271013.381198 292819.689900 25.690500 -1798 
271018.006200 292818.404900 25.605500 -1798 
271019.426200 292818.519900 25.580500 -1798 
271018.676200 292818.949901 25.605500 -1798 
271016.571201 292817.359900 25.625500 -1798 
271019.256200 292818.664901 25.585500 -1798 
271017.346198 292818.909900 25.625500 -1798 
271019.891200 292818.434899 25.580500 -1798 
271017.671199 292817.954900 25.615500 -1798 
271016.671199 292819.074901 25.630500 -1798 
271018.456199 292818.394900 25.605500 -1798 
271017.681199 292817.339900 25.605500 -1798 
271017.921199 292818.604899 25.615500 -1798 
271018.036201 292818.609900 25.605500 -1798 
271019.476200 292819.699901 25.595500 -1798 
271016.121200 292818.419900 25.635500 -1798 
271018.081199 292819.819899 25.625500 -1798 
271017.901201 292818.589900 25.615500 -1798 
271018.241201 292819.339900 25.615500 -1798 
271019.091199 292818.964900 25.605500 -1798 
271019.846200 292818.289901 25.580500 -1798 
271019.251199 292819.029900 25.595500 -1798 
271019.366201 292818.744901 25.585500 -1798 
271017.301200 292817.799901 25.615500 -1798 
271015.751201 292819.409900 25.635500 -1798 
271015.986202 292817.564900 25.635500 -1798 
271016.731201 292817.349900 25.625500 -1798 
271017.441200 292818.789901 25.625500 -1798 
271016.631198 292817.434899 25.625500 -1798 
271015.796199 292817.979899 25.635500 -1798 
271018.646200 292819.059899 25.605500 -1798 
271017.116199 292817.894900 25.625500 -1798 
271016.411201 292818.329900 25.630500 -1798 
271017.121200 292817.579900 25.615500 -1798 
271017.666200 292819.609900 25.625500 -1798 
271018.111200 292819.829900 25.625500 -1798 
271019.646200 292818.534900 25.580500 -1798 
271017.566200 292819.399899 25.625500 -1798 
271018.861200 292819.704900 25.605500 -1798 
271017.726200 292818.059899 25.615500 -1798 
271015.306201 292818.484900 25.645500 -1798 
271015.756198 292818.749900 25.635500 -1798 
271017.421199 292818.764899 25.625500 -1798 
271017.901201 292818.944899 25.615500 -1798 
271018.701200 292818.559899 25.605500 -1798 
271019.656200 292818.844899 25.580500 -1798 
271019.721200 292818.599900 25.580500 -1798 
271018.221200 292818.199901 25.605500 -1798 
271017.611202 292819.734900 25.625500 -1798 
271016.076202 292818.739900 25.635500 -1798 
271015.516200 292818.004901 25.635500 -1798 
271015.676200 292818.559899 25.635500 -1798 
271017.916200 292818.214900 25.615500 -1798 
271014.171199 292818.764899 25.665500 -1798 
271019.781200 292818.569899 25.580500 -1798 
271017.626201 292817.869901 25.615500 -1798 
271019.211200 292818.564900 25.580500 -1798 
271015.801200 292818.334901 25.635500 -1798 
271017.771200 292817.729899 25.615500 -1798 
271017.711200 292818.279900 25.615500 -1798 
271017.536201 292817.414901 25.615500 -1798 
271019.071201 292819.669900 25.605500 -1798 
271016.301200 292817.604899 25.630500 0 
271018.586200 292819.084901 25.605500 -1798 
271017.566200 292818.324901 25.615500 -1798 
271017.616199 292818.134900 25.615500 -1798 
271015.116199 292819.024899 25.645500 -1798 
271019.736200 292819.189900 25.580500 -1798 
271017.966199 292819.994901 25.625500 -1798 
271017.191200 292817.704900 25.625500 -1798 
271017.341201 292819.139899 25.625500 -1798 
271019.526201 292818.709901 25.580500 -1798 
271019.466199 292819.879901 25.595500 -1798 
271016.806201 292818.019900 25.625500 -1798 
271016.301200 292817.699901 25.630500 -1798 
271018.381200 292819.609900 25.615500 -1798 
271017.466201 292817.829900 25.615500 -1798 
271019.226200 292819.409900 25.605500 -1798 
271017.761199 292817.264899 25.605500 -1798 
271017.731201 292817.624900 25.605500 -1798 
271014.911201 292819.249900 25.655500 -1798 
271018.971200 292819.149899 25.605500 -1798 
271017.316200 292817.254901 25.615500 -1798 
271018.501199 292819.374900 25.615500 -1798 
271016.526199 292817.514899 25.625500 -1798 
