1152
271028.178501 292814.858000 25.403800 0 
271030.463500 292814.038000 25.343800 0 
271024.963500 292815.078000 25.438800 -1798 
271025.753499 292812.603000 25.413800 0 
271026.058500 292815.998000 25.428800 0 
271022.793500 292817.043000 25.498800 -1798 
271023.898500 292816.313001 25.473800 0 
271024.173500 292815.548000 25.458800 0 
271022.933500 292816.403001 25.488800 0 
271022.018501 292816.568000 25.503800 -1798 
271025.843500 292813.763000 25.418800 0 
271028.703500 292812.608000 25.363800 0 
271025.623500 292814.883000 25.423800 0 
271030.263500 292813.238000 25.338800 0 
271028.523500 292813.668000 25.378800 0 
271026.873500 292814.038000 25.403800 0 
271026.773500 292814.243000 25.408800 0 
271026.268501 292814.528000 25.418800 0 
271028.323499 292814.073000 25.388800 0 
271028.438501 292811.898000 25.358800 0 
271023.993499 292813.703000 25.448800 0 
271025.308500 292816.058000 25.443800 0 
271028.128499 292813.218000 25.388800 -160 
271025.103500 292812.933000 25.423800 0 
271029.258500 292812.338000 25.348800 0 
271024.558500 292813.868000 25.438800 0 
271025.723501 292812.413000 25.413800 0 
271025.193500 292812.558000 25.418800 0 
271025.863500 292812.858000 25.413800 0 
271023.933500 292813.348000 25.448800 -1798 
271029.413499 292814.518000 25.373800 0 
271025.528499 292813.583000 25.418800 0 
271024.768501 292813.668000 25.433800 0 
271024.678501 292814.463000 25.443800 -1798 
271028.893501 292813.038000 25.363800 0 
271022.258500 292816.528001 25.498800 -1798 
271024.198499 292815.743001 25.458800 -1798 
271028.103500 292813.958000 25.388800 0 
271028.623500 292812.123000 25.358800 0 
271027.133500 292814.143000 25.403800 0 
271028.253499 292814.723000 25.398800 0 
271026.423500 292813.963000 25.408800 0 
271030.253499 292813.273000 25.338800 0 
271025.963500 292814.843000 25.418800 0 
271025.358501 292812.648000 25.418800 0 
271023.778499 292814.508000 25.463800 0 
271027.013500 292814.073000 25.403800 0 
271027.658500 292814.158000 25.403800 0 
271025.433500 292815.168000 25.428800 0 
271026.958499 292815.393000 25.418800 0 
271030.163499 292812.178000 25.328800 0 
271024.633500 292814.343000 25.443800 0 
271028.908500 292812.648000 25.358800 0 
271028.093500 292811.538000 25.358800 0 
271024.308500 292815.508000 25.458800 0 
271022.998500 292814.713000 25.483800 0 
271029.703500 292812.678000 25.343800 0 
271023.703500 292815.637999 25.463800 0 
271028.818500 292812.493000 25.358800 0 
271026.958499 292815.103000 25.418800 0 
271026.093500 292813.963000 25.418800 0 
271028.493499 292813.553000 25.378800 0 
271025.403499 292812.653000 25.418800 0 
271029.853500 292813.308000 25.348800 -160 
271023.533500 292814.543000 25.468800 0 
271024.353500 292813.033000 25.433800 0 
271028.698499 292814.313000 25.388800 0 
271025.568500 292813.088000 25.418800 0 
271025.143501 292812.648000 25.418800 0 
271025.953500 292815.233000 25.423800 -1798 
271027.788499 292814.118000 25.398800 0 
271029.108501 292813.738000 25.368800 0 
271028.483501 292812.008000 25.358800 0 
271023.508500 292815.343000 25.473800 0 
271026.403499 292813.948000 25.413800 0 
271025.028499 292814.548000 25.433800 0 
271021.928501 292817.047999 25.518800 -1798 
271025.258500 292813.943000 25.428800 0 
271023.528499 292813.648000 25.458800 -1798 
271028.658500 292814.013000 25.383800 0 
271028.468500 292814.718000 25.393800 0 
271026.078500 292813.748000 25.418800 0 
271028.868499 292812.588000 25.358800 0 
271026.123500 292812.248000 25.408800 0 
271023.638500 292813.443000 25.453800 0 
271029.198499 292813.423000 25.363800 0 
271025.943500 292813.673000 25.418800 0 
271028.798500 292812.018000 25.353800 0 
271024.083499 292813.958000 25.448800 0 
271027.793500 292813.998000 25.398800 0 
271024.163499 292813.943000 25.443800 0 
271024.953500 292812.918000 25.423800 0 
271025.253499 292813.468000 25.423800 0 
271029.798500 292813.793000 25.353800 0 
271024.143501 292814.068000 25.448800 -1798 
271029.938501 292812.933000 25.343800 0 
271026.093500 292814.208000 25.413800 0 
271028.518501 292812.193000 25.363800 0 
271029.238500 292811.548000 25.338800 0 
271026.088500 292812.133000 25.408800 0 
271028.683500 292812.828000 25.363800 0 
271028.148500 292814.273000 25.393800 0 
271029.548500 292814.368000 25.363800 0 
271029.598501 292811.888000 25.338800 0 
271026.693500 292814.583000 25.413800 0 
271025.643501 292814.308000 25.418800 0 
271028.273500 292814.193000 25.393800 0 
271030.923500 292813.623000 25.333800 0 
271029.433500 292813.268000 25.358800 0 
271025.568500 292813.243000 25.418800 0 
271025.683500 292812.878000 25.418800 0 
271030.163499 292813.343000 25.338800 0 
271023.288499 292813.908000 25.468800 0 
271028.328500 292814.203000 25.388800 0 
271026.983501 292815.338000 25.418800 0 
271027.723501 292813.568000 25.388800 -1798 
271027.578500 292814.743000 25.403800 0 
271029.738500 292811.733000 25.328800 0 
271026.648500 292815.268000 25.418800 0 
271022.288499 292816.713000 25.503800 -1798 
271029.393501 292811.963000 25.338800 0 
271022.368499 292816.653001 25.498800 -1798 
271029.678501 292812.123000 25.333800 0 
271021.668500 292816.618001 25.518800 -1798 
271025.473501 292812.918000 25.418800 0 
271023.558500 292814.298000 25.468800 0 
271029.898500 292813.723000 25.353800 0 
271026.518501 292815.797999 25.418800 0 
271025.538499 292814.033000 25.423800 0 
271028.693500 292812.538000 25.358800 0 
271028.888500 292812.503000 25.358800 0 
271025.473501 292812.383000 25.413800 0 
271030.403499 292813.938000 25.343800 0 
271023.123500 292816.793000 25.488800 -1798 
271028.043500 292814.068000 25.393800 0 
271025.668500 292815.243000 25.428800 0 
271026.188501 292813.828000 25.418800 0 
271026.583499 292814.588000 25.413800 0 
271025.178501 292813.373000 25.423800 0 
271026.108501 292812.223000 25.408800 0 
271025.233501 292814.893000 25.428800 0 
271029.058500 292812.848000 25.353800 0 
271026.013500 292816.183000 25.433800 0 
271027.583499 292814.368000 25.403800 0 
271029.718500 292812.278000 25.333800 0 
271028.658500 292813.763000 25.383800 0 
271029.338500 292812.528000 25.348800 0 
271022.003499 292817.082999 25.513800 -1798 
271029.288499 292813.023000 25.358800 0 
271027.368499 292814.563000 25.403800 0 
271025.138500 292814.058000 25.433800 0 
271027.298500 292814.078000 25.403800 0 
271029.108501 292812.468000 25.353800 0 
271024.338500 292815.908000 25.458800 0 
271025.908500 292812.968000 25.413800 0 
271029.313501 292814.528000 25.378800 0 
271021.838500 292814.773000 25.508800 -1798 
271029.558500 292812.323000 25.338800 0 
271026.003499 292814.623000 25.418800 0 
271029.038499 292813.053000 25.358800 0 
271025.093500 292812.678000 25.418800 0 
271026.368499 292814.038000 25.413800 0 
271022.028499 292814.463000 25.493800 -1798 
271028.673500 292815.128000 25.393800 0 
271029.188501 292813.748000 25.368800 -1798 
271024.178501 292813.978000 25.448800 0 
271026.348501 292813.938000 25.413800 0 
271026.368499 292814.683000 25.413800 0 
271028.483501 292813.673000 25.383800 0 
271024.133500 292814.498000 25.458800 0 
271025.123500 292813.793000 25.428800 0 
271021.808500 292816.637999 25.513800 -1798 
271030.288499 292813.993000 25.348800 0 
271027.333499 292814.128000 25.403800 -1798 
271028.808500 292813.108000 25.368800 0 
271021.833499 292815.858001 25.513800 -1798 
271025.133500 292813.183000 25.423800 0 
271026.318500 292813.838000 25.413800 0 
271028.018501 292814.458000 25.398800 0 
271027.813501 292814.238000 25.398800 0 
271029.623500 292813.383000 25.353800 0 
271027.578500 292812.008000 25.383800 -1798 
271027.403499 292814.068000 25.403800 0 
271029.193500 292813.308000 25.358800 0 
271023.648500 292813.793000 25.458800 -1798 
271028.628499 292812.738000 25.363800 0 
271028.658500 292811.603000 25.348800 0 
271025.893501 292812.118000 25.408800 0 
271023.733501 292816.133000 25.473800 -1798 
271025.098501 292812.903000 25.423800 0 
271028.593500 292812.858000 25.368800 0 
271028.833499 292812.418000 25.358800 0 
271022.018501 292815.838000 25.503800 -1798 
271026.728500 292814.333000 25.408800 0 
271024.683500 292814.863000 25.438800 0 
271028.173500 292814.098000 25.393800 0 
271028.763500 292814.258000 25.383800 0 
271028.518501 292811.513000 25.353800 0 
271027.123500 292814.793000 25.413800 0 
271029.133500 292812.883000 25.353800 0 
271026.448499 292814.373000 25.418800 -160 
271021.923500 292814.708000 25.503800 -1798 
271025.643501 292815.313000 25.428800 -1798 
271025.508500 292812.828000 25.418800 0 
271023.083499 292813.623000 25.468800 0 
271030.698499 292813.153000 25.333800 0 
271025.823499 292813.868000 25.418800 0 
271028.893501 292811.783000 25.348800 0 
271025.858501 292814.703000 25.418800 0 
271025.888500 292816.608001 25.438800 0 
271022.818500 292814.553000 25.483800 -1798 
271029.213500 292813.368000 25.363800 0 
271025.228500 292816.193000 25.448800 -1798 
271028.438501 292813.728000 25.383800 0 
271026.803501 292815.363000 25.418800 0 
271028.668500 292812.428000 25.358800 0 
271022.198499 292816.662999 25.503800 -1798 
271030.678501 292812.693000 25.328800 -1798 
271029.378499 292814.163000 25.368800 0 
271028.103500 292814.738000 25.398800 0 
271026.658500 292815.832999 25.418800 0 
271022.303501 292815.588000 25.498800 -1798 
271024.913499 292814.758000 25.433800 0 
271021.538499 292816.403001 25.518800 -1798 
271029.083499 292814.268000 25.378800 0 
271029.158500 292811.518000 25.338800 0 
271025.908500 292813.328000 25.418800 0 
271023.473501 292816.988000 25.483800 0 
271028.423500 292813.743000 25.383800 0 
271029.233501 292814.168000 25.373800 0 
271025.673500 292814.268000 25.418800 0 
271025.578500 292815.268000 25.428800 0 
271027.448499 292814.713000 25.408800 0 
271029.443500 292813.723000 25.363800 0 
271028.648500 292813.098000 25.368800 0 
271024.488500 292815.373000 25.453800 0 
271025.398500 292816.178000 25.443800 -160 
271028.198499 292814.328000 25.393800 0 
271028.763500 292812.523000 25.358800 -160 
271029.168500 292812.973000 25.358800 0 
271022.668500 292816.738000 25.493800 -1798 
271028.638500 292811.698000 25.353800 0 
271030.558500 292812.068000 25.323800 -160 
271025.283500 292815.143000 25.433800 -1798 
271024.908500 292814.383000 25.438800 0 
271030.508500 292812.303000 25.328800 0 
271028.018501 292814.973000 25.403800 0 
271021.598501 292815.043000 25.513800 0 
271024.398500 292814.513000 25.453800 -1798 
271024.118499 292813.483000 25.443800 0 
271025.783500 292813.133000 25.418800 0 
271028.738500 292811.613000 25.348800 -160 
271025.418500 292813.418000 25.423800 0 
271024.738500 292814.238000 25.438800 0 
271027.973501 292811.608000 25.363800 0 
271025.428501 292815.253000 25.433800 0 
271027.433500 292812.933000 25.388800 -1798 
271029.178501 292813.588000 25.363800 0 
271028.988500 292814.748000 25.388800 0 
271028.578500 292814.043000 25.378800 0 
271028.783500 292813.713000 25.378800 0 
271026.758500 292814.023000 25.403800 0 
271028.913499 292814.103000 25.378800 0 
271025.768501 292814.503000 25.418800 0 
271025.803501 292812.753000 25.413800 0 
271027.493499 292814.108000 25.403800 0 
271027.808500 292814.883000 25.403800 0 
271025.448499 292813.893000 25.423800 0 
271028.663499 292812.208000 25.358800 0 
271028.068500 292814.018000 25.393800 0 
271028.808500 292812.713000 25.363800 0 
271024.763500 292816.457999 25.458800 -1798 
271023.813501 292815.768001 25.468800 -1798 
271024.748500 292816.082999 25.458800 0 
271028.393501 292814.438000 25.393800 0 
271026.233501 292813.833000 25.413800 0 
271025.013500 292813.673000 25.428800 0 
271029.753499 292813.178000 25.348800 -160 
271028.573499 292813.883000 25.383800 0 
271028.608501 292811.608000 25.348800 0 
271026.313501 292814.558000 25.413800 0 
271024.358501 292813.098000 25.433800 0 
271022.973501 292816.023000 25.483800 -1798 
271024.358501 292814.953000 25.453800 -1798 
271028.418500 292813.698000 25.383800 0 
271030.158500 292813.098000 25.338800 -160 
271028.753499 292813.823000 25.383800 0 
271028.308500 292813.913000 25.388800 0 
271025.368499 292814.293000 25.428800 0 
271023.193500 292814.038000 25.468800 0 
271027.388500 292815.078000 25.413800 0 
271025.668500 292815.703000 25.433800 0 
271028.493499 292814.418000 25.388800 0 
271029.168500 292811.828000 25.343800 0 
271025.083499 292813.183000 25.423800 0 
271025.433500 292813.573000 25.423800 0 
271021.573499 292816.762999 25.518800 -1798 
271025.883500 292813.353000 25.418800 0 
271027.983501 292814.388000 25.398800 0 
271026.418500 292814.348000 25.413800 0 
271027.983501 292814.603000 25.398800 0 
271021.538499 292815.533000 25.518800 -1798 
271022.253499 292816.752999 25.503800 0 
271027.603500 292814.783000 25.403800 0 
271024.798500 292813.918000 25.438800 0 
271029.653499 292812.248000 25.333800 0 
271026.748500 292814.963000 25.418800 0 
271026.588500 292814.038000 25.408800 0 
271029.173500 292813.903000 25.368800 0 
271030.563501 292813.778000 25.338800 0 
271024.728500 292816.213000 25.458800 -1798 
271025.003499 292812.913000 25.423800 0 
271027.213500 292814.268000 25.403800 0 
271029.993499 292814.373000 25.353800 0 
271026.288499 292814.313000 25.413800 0 
271025.433500 292814.543000 25.428800 0 
271028.858501 292812.158000 25.353800 0 
271027.463500 292814.168000 25.403800 0 
271024.888500 292815.223000 25.443800 0 
271026.543500 292813.543000 25.408800 -1798 
271030.563501 292811.723000 25.318800 0 
271027.658500 292814.128000 25.398800 0 
271022.308500 292816.868001 25.503800 -1798 
271030.808500 292813.003000 25.328800 0 
271027.593500 292814.178000 25.398800 0 
271025.628499 292815.893001 25.438800 0 
271029.803501 292813.248000 25.348800 -160 
271025.028499 292815.008000 25.433800 0 
271028.873500 292814.078000 25.378800 0 
271029.593500 292812.888000 25.348800 0 
271025.893501 292814.478000 25.418800 0 
271028.013500 292814.303000 25.398800 0 
271024.803501 292816.898000 25.463800 -1798 
271025.688501 292812.408000 25.413800 0 
271025.243499 292813.263000 25.423800 0 
271024.098501 292815.873000 25.458800 0 
271027.423500 292814.678000 25.403800 0 
271025.883500 292815.453000 25.428800 0 
271025.978500 292812.803000 25.413800 0 
271028.083499 292811.753000 25.363800 0 
271025.953500 292815.948001 25.433800 0 
271025.938501 292813.228000 25.418800 0 
271030.798500 292813.128000 25.328800 0 
271029.643501 292814.233000 25.358800 0 
271023.518501 292816.443000 25.478800 0 
271026.238500 292813.963000 25.418800 0 
271028.578500 292812.038000 25.353800 0 
271021.608501 292815.098000 25.513800 -1798 
271022.338500 292816.428000 25.498800 0 
271025.998500 292815.133000 25.423800 0 
271024.143501 292815.578000 25.458800 -1798 
271025.848501 292812.988000 25.413800 0 
271026.063501 292812.698000 25.408800 -1798 
271029.423500 292811.778000 25.338800 0 
271028.708499 292813.563000 25.378800 0 
271030.008500 292812.513000 25.333800 0 
271030.088500 292813.618000 25.343800 0 
271026.328500 292814.053000 25.413800 -1798 
271028.703500 292814.488000 25.388800 0 
271028.723501 292813.863000 25.383800 0 
271028.828500 292813.788000 25.378800 0 
271027.683500 292815.458000 25.403800 0 
271025.563501 292814.678000 25.423800 0 
271029.633500 292811.973000 25.333800 0 
271023.768501 292813.378000 25.453800 -160 
271030.143501 292812.893000 25.338800 0 
271024.948499 292816.103000 25.453800 -1798 
271027.798500 292814.983000 25.403800 0 
271025.373500 292813.653000 25.423800 0 
271030.093500 292813.343000 25.338800 0 
271030.713500 292812.513000 25.323800 0 
271023.973501 292814.243000 25.453800 -1798 
271026.323499 292814.463000 25.418800 0 
271029.713500 292811.848000 25.333800 0 
271027.973501 292815.403000 25.403800 0 
271029.193500 292813.563000 25.363800 0 
271026.038499 292813.183000 25.413800 0 
271030.983501 292811.643000 25.313800 0 
271028.933500 292813.428000 25.373800 -2047 
271028.688501 292812.518000 25.363800 0 
271022.358501 292816.203000 25.493800 -1798 
271025.443500 292812.348000 25.418800 0 
271027.063501 292814.193000 25.403800 0 
271028.503499 292812.243000 25.363800 0 
271023.973501 292814.178000 25.453800 0 
271029.223501 292813.488000 25.363800 0 
271028.298500 292813.838000 25.388800 0 
271029.108501 292813.018000 25.358800 -160 
271024.993499 292815.832999 25.448800 0 
271024.328500 292813.893000 25.448800 -1798 
271025.213500 292815.188000 25.433800 0 
271025.593500 292812.358000 25.413800 0 
271029.188501 292811.668000 25.343800 0 
271028.578500 292811.688000 25.353800 0 
271029.028499 292813.623000 25.363800 0 
271026.913499 292814.643000 25.413800 0 
271028.558500 292811.833000 25.353800 0 
271025.898500 292812.263000 25.408800 0 
271025.928501 292812.873000 25.413800 0 
271030.143501 292812.858000 25.338800 0 
271025.713500 292813.453000 25.418800 0 
271027.993499 292812.743000 25.383800 -1798 
271029.298500 292811.873000 25.343800 0 
271028.903499 292814.458000 25.383800 0 
271023.013500 292817.223000 25.498800 -1798 
271027.138500 292814.488000 25.408800 0 
271023.768501 292813.923000 25.458800 0 
271028.103500 292814.293000 25.398800 0 
271029.003499 292813.023000 25.358800 0 
271028.493499 292815.018000 25.393800 0 
271028.313501 292813.863000 25.388800 0 
271022.743499 292815.468000 25.488800 -1798 
271028.388500 292814.153000 25.388800 0 
271028.778499 292812.753000 25.358800 0 
271028.708499 292811.928000 25.353800 0 
271028.343500 292814.063000 25.383800 0 
271028.783500 292814.243000 25.383800 0 
271029.508500 292813.388000 25.358800 0 
271029.208499 292812.528000 25.348800 0 
271026.363500 292816.008000 25.428800 0 
271027.063501 292814.058000 25.403800 0 
271024.578500 292814.288000 25.443800 -1798 
271026.318500 292814.243000 25.413800 0 
271026.468500 292814.453000 25.413800 0 
271025.823499 292813.598000 25.418800 0 
271028.133500 292814.403000 25.393800 0 
271025.583499 292814.383000 25.423800 0 
271029.768501 292812.228000 25.333800 0 
271022.888500 292815.253000 25.488800 0 
271026.158500 292813.883000 25.418800 0 
271025.938501 292812.093000 25.403800 0 
271022.408500 292817.043000 25.503800 -1798 
271028.683500 292813.308000 25.373800 0 
271026.288499 292813.763000 25.413800 0 
271029.303501 292812.638000 25.348800 0 
271026.248500 292814.773000 25.418800 0 
271029.338500 292814.023000 25.368800 0 
271028.073499 292813.803000 25.388800 0 
271027.048500 292814.158000 25.408800 0 
271029.208499 292811.593000 25.338800 0 
271025.503499 292814.953000 25.428800 0 
271022.933500 292814.133000 25.478800 0 
271029.353500 292812.723000 25.348800 0 
271028.813501 292813.743000 25.373800 0 
271028.208499 292811.578000 25.358800 0 
271027.098501 292815.468000 25.413800 0 
271027.773500 292815.143000 25.403800 0 
271029.233501 292813.458000 25.358800 0 
271024.073499 292816.047999 25.463800 0 
271028.928501 292814.883000 25.388800 0 
271025.578500 292815.358000 25.433800 0 
271024.233501 292816.403001 25.468800 0 
271024.748500 292814.578000 25.438800 -1798 
271024.088500 292813.333000 25.443800 0 
271024.743499 292816.338000 25.458800 -1798 
271028.813501 292814.013000 25.383800 0 
271029.908500 292812.308000 25.333800 0 
271030.698499 292812.353000 25.323800 0 
271025.023500 292814.308000 25.433800 0 
271026.568500 292815.188000 25.418800 0 
271026.003499 292813.328000 25.413800 0 
271028.978500 292814.673000 25.388800 0 
271026.003499 292812.743000 25.408800 0 
271024.553501 292814.948000 25.448800 -160 
271027.648500 292813.383000 25.388800 -1798 
271022.093500 292814.528000 25.493800 -1798 
271027.898500 292811.633000 25.363800 0 
271025.843500 292813.488000 25.418800 0 
271024.533500 292814.808000 25.443800 0 
271026.363500 292814.128000 25.413800 -1798 
271028.303501 292811.878000 25.363800 0 
271027.608501 292814.203000 25.403800 0 
271026.768501 292814.278000 25.408800 0 
271023.648500 292815.298000 25.468800 0 
271027.523500 292814.793000 25.403800 0 
271029.023500 292812.443000 25.353800 0 
271026.708499 292814.903000 25.418800 0 
271023.728500 292814.908000 25.468800 0 
271029.503499 292814.528000 25.368800 0 
271029.203500 292811.688000 25.343800 -160 
271025.868499 292813.098000 25.418800 0 
271029.488500 292814.448000 25.368800 0 
271028.953500 292814.478000 25.383800 0 
271026.363500 292814.438000 25.418800 0 
271022.558500 292816.303000 25.493800 0 
271029.533500 292811.598000 25.333800 0 
271023.823499 292814.583000 25.463800 0 
271026.808500 292814.128000 25.408800 0 
271026.983501 292814.368000 25.403800 0 
271025.343500 292813.113000 25.418800 0 
271029.883500 292811.568000 25.328800 0 
271022.788499 292817.133000 25.498800 -1798 
271026.118499 292814.373000 25.418800 0 
271024.503499 292814.268000 25.443800 0 
271029.423500 292813.998000 25.363800 0 
271021.538499 292815.593000 25.518800 0 
271025.053501 292813.463000 25.428800 0 
271026.193500 292814.338000 25.413800 0 
271025.838500 292813.558000 25.418800 0 
271021.578500 292814.373000 25.508800 -1798 
271029.563501 292811.653000 25.333800 0 
271027.653499 292814.193000 25.403800 0 
271027.353500 292814.208000 25.403800 0 
271028.578500 292813.763000 25.383800 0 
271025.118499 292813.438000 25.428800 -1798 
271028.273500 292813.943000 25.388800 0 
271026.738500 292815.293000 25.418800 0 
271024.958499 292816.168000 25.453800 -1798 
271029.413499 292812.173000 25.343800 0 
271021.623500 292814.568000 25.508800 -1798 
271024.903499 292812.968000 25.428800 0 
271029.323499 292814.048000 25.368800 0 
271025.063501 292815.883000 25.448800 0 
271029.923500 292813.658000 25.353800 0 
271023.978500 292815.528000 25.458800 0 
271028.408500 292813.903000 25.388800 0 
271028.548500 292812.438000 25.363800 0 
271026.038499 292812.233000 25.408800 0 
271023.503499 292816.633000 25.483800 -1798 
271028.653499 292812.873000 25.363800 0 
271025.788499 292813.538000 25.418800 0 
271025.638500 292815.787999 25.433800 0 
271028.298500 292811.693000 25.358800 0 
271026.863500 292814.988000 25.418800 0 
271025.618499 292813.408000 25.418800 0 
271025.228500 292814.103000 25.428800 0 
271024.638500 292814.198000 25.443800 0 
271023.838500 292815.338000 25.463800 0 
271030.013500 292812.748000 25.338800 0 
271028.688501 292814.148000 25.383800 0 
271025.858501 292812.113000 25.408800 0 
271022.073499 292816.928000 25.508800 -1798 
271022.768501 292814.593000 25.483800 0 
271028.023500 292814.768000 25.398800 0 
271022.903499 292817.127999 25.498800 -1798 
271025.833499 292812.808000 25.413800 0 
271024.583499 292815.538000 25.453800 -1798 
271029.663499 292814.203000 25.358800 0 
271028.118499 292814.633000 25.398800 0 
271025.763500 292813.043000 25.418800 0 
271028.783500 292813.848000 25.383800 0 
271029.723501 292811.708000 25.328800 0 
271028.078500 292814.558000 25.398800 0 
271029.663499 292813.638000 25.358800 0 
271023.928501 292814.068000 25.453800 0 
271025.803501 292816.108001 25.438800 -1798 
271022.793500 292814.188000 25.478800 0 
271030.478500 292814.003000 25.343800 0 
271028.483501 292813.723000 25.383800 0 
271026.603500 292813.973000 25.408800 0 
271027.283500 292814.493000 25.408800 0 
271022.093500 292814.998000 25.498800 0 
271022.463500 292815.443000 25.493800 -1798 
271021.608501 292816.058000 25.518800 -1798 
271029.308500 292813.368000 25.358800 0 
271022.973501 292816.453000 25.488800 0 
271026.178501 292813.583000 25.413800 0 
271024.143501 292813.163000 25.438800 0 
271030.763500 292812.103000 25.318800 0 
271027.653499 292814.688000 25.403800 0 
271029.833499 292812.088000 25.333800 -160 
271029.328500 292812.443000 25.343800 0 
271023.953500 292814.603000 25.458800 0 
271028.443500 292812.628000 25.373800 -2047 
271027.453500 292814.978000 25.408800 0 
271025.453500 292812.508000 25.418800 0 
271029.378499 292814.368000 25.373800 0 
271024.318500 292816.318000 25.463800 -1798 
271025.718500 292814.048000 25.418800 0 
271028.753499 292814.518000 25.388800 0 
271026.668500 292815.752999 25.418800 0 
271028.168500 292814.473000 25.393800 0 
271025.983501 292813.193000 25.418800 0 
271029.018501 292814.108000 25.378800 0 
271030.578500 292813.338000 25.333800 0 
271025.978500 292812.783000 25.413800 0 
271027.153499 292814.178000 25.403800 0 
271025.568500 292813.478000 25.418800 0 
271028.393501 292813.918000 25.383800 0 
271025.408500 292814.423000 25.428800 0 
271026.108501 292812.098000 25.408800 0 
271021.653499 292814.598000 25.508800 -1798 
271026.498500 292814.508000 25.413800 0 
271026.713500 292814.068000 25.403800 0 
271026.883500 292814.673000 25.413800 0 
271026.443500 292814.093000 25.408800 0 
271030.833499 292811.943000 25.313800 0 
271027.363500 292815.133000 25.408800 0 
271030.033500 292813.783000 25.348800 0 
271024.618499 292812.763000 25.428800 -1798 
271024.213500 292816.603000 25.468800 0 
271025.038499 292813.408000 25.428800 0 
271024.543500 292812.838000 25.428800 0 
271027.898500 292814.013000 25.393800 0 
271029.618499 292814.143000 25.363800 0 
271026.823499 292815.193000 25.418800 0 
271027.088500 292815.178000 25.413800 0 
271024.963500 292813.533000 25.428800 0 
271026.838500 292814.838000 25.418800 0 
271028.533500 292812.028000 25.358800 0 
271029.348501 292812.918000 25.353800 0 
271028.763500 292813.158000 25.368800 0 
271029.013500 292812.623000 25.353800 0 
271025.958499 292814.138000 25.418800 0 
271025.513500 292814.098000 25.423800 -1798 
271026.833499 292814.023000 25.408800 0 
271028.808500 292814.668000 25.388800 0 
271026.858501 292815.573000 25.418800 0 
271024.858501 292815.198000 25.438800 0 
271028.508500 292814.308000 25.388800 0 
271026.168500 292813.878000 25.418800 -160 
271029.813501 292813.353000 25.348800 0 
271026.983501 292815.808000 25.418800 0 
271028.853500 292814.098000 25.383800 0 
271025.438501 292812.433000 25.418800 -160 
271028.348501 292814.373000 25.388800 0 
271026.003499 292812.788000 25.408800 0 
271030.803501 292813.648000 25.333800 0 
271030.983501 292813.033000 25.323800 -160 
271023.018501 292814.013000 25.473800 -1798 
271030.078500 292812.688000 25.338800 0 
271025.458499 292815.908000 25.438800 0 
271030.013500 292812.848000 25.338800 0 
271028.478500 292813.628000 25.383800 0 
271025.433500 292812.763000 25.418800 0 
271026.173500 292815.153000 25.423800 0 
271028.883500 292813.083000 25.363800 0 
271030.553501 292812.053000 25.323800 0 
271021.873500 292816.603000 25.513800 -1798 
271027.053501 292815.533000 25.413800 0 
271028.328500 292814.248000 25.388800 0 
271022.538499 292816.537999 25.493800 -1798 
271021.673500 292817.103000 25.523800 -1798 
271024.593500 292814.738000 25.443800 0 
271025.803501 292813.968000 25.418800 0 
271023.388500 292816.818000 25.483800 -1798 
271021.513500 292815.368000 25.518800 -1798 
271026.898500 292814.483000 25.408800 0 
271027.523500 292814.708000 25.403800 0 
271027.483501 292814.978000 25.408800 0 
271029.713500 292812.248000 25.333800 0 
271026.418500 292813.883000 25.413800 0 
271029.448499 292814.378000 25.368800 0 
271029.158500 292813.928000 25.368800 0 
271026.418500 292815.078000 25.418800 0 
271028.328500 292813.938000 25.388800 0 
271028.478500 292812.253000 25.363800 0 
271029.188501 292814.053000 25.373800 0 
271028.778499 292812.708000 25.358800 0 
271028.558500 292813.553000 25.383800 0 
271025.228500 292812.763000 25.418800 0 
271029.058500 292813.548000 25.363800 0 
271026.903499 292814.128000 25.408800 0 
271022.518501 292815.797999 25.493800 -1798 
271026.028499 292814.053000 25.418800 0 
271024.803501 292813.583000 25.433800 0 
271027.623500 292814.668000 25.403800 -160 
271023.508500 292815.428000 25.473800 -1798 
271029.333499 292814.413000 25.373800 0 
271025.413499 292813.268000 25.418800 0 
271030.453500 292812.663000 25.333800 0 
271026.003499 292812.848000 25.413800 0 
271030.598501 292813.223000 25.333800 0 
271027.788499 292814.033000 25.398800 0 
271029.923500 292812.373000 25.333800 0 
271025.798500 292814.023000 25.418800 0 
271028.948499 292811.633000 25.343800 0 
271024.808500 292814.353000 25.438800 0 
271025.503499 292812.418000 25.418800 0 
271026.658500 292813.943000 25.408800 0 
271027.603500 292814.738000 25.403800 0 
271022.108501 292815.268000 25.498800 -1798 
271028.763500 292812.543000 25.358800 0 
271022.223501 292816.268001 25.498800 0 
271025.678501 292813.463000 25.418800 0 
271029.388500 292811.698000 25.338800 0 
271023.888500 292813.663000 25.448800 0 
271028.983501 292813.303000 25.363800 0 
271025.498500 292813.513000 25.418800 0 
271028.813501 292812.763000 25.363800 0 
271022.233501 292816.123000 25.498800 -1798 
271028.808500 292812.328000 25.353800 0 
271028.763500 292814.923000 25.393800 -1798 
271025.358501 292813.723000 25.423800 0 
271023.133500 292814.988000 25.483800 0 
271024.673500 292816.028001 25.458800 0 
271026.863500 292815.378000 25.418800 0 
271029.148500 292813.663000 25.363800 0 
271022.228500 292815.073000 25.498800 -1798 
271028.938501 292814.278000 25.383800 0 
271025.923500 292812.743000 25.413800 0 
271022.118499 292816.653001 25.503800 -1798 
271024.668500 292813.948000 25.438800 0 
271024.513500 292813.498000 25.438800 0 
271028.558500 292813.098000 25.373800 0 
271028.308500 292813.783000 25.388800 0 
271021.788499 292816.963000 25.518800 -1798 
271028.368499 292813.618000 25.383800 0 
271026.993499 292814.303000 25.408800 0 
271028.653499 292814.993000 25.393800 0 
271028.653499 292814.518000 25.393800 -1798 
271028.473501 292814.283000 25.388800 0 
271027.123500 292815.823001 25.413800 0 
271025.183500 292812.833000 25.418800 0 
271026.193500 292813.453000 25.418800 0 
271027.928501 292814.093000 25.398800 0 
271029.138500 292812.393000 25.348800 0 
271029.958499 292812.273000 25.333800 -160 
271026.923500 292815.583000 25.418800 0 
271025.278499 292812.928000 25.418800 0 
271026.103500 292815.563000 25.423800 0 
271025.098501 292815.533000 25.443800 -1798 
271025.858501 292812.393000 25.413800 0 
271028.633500 292811.523000 25.348800 0 
271022.558500 292814.243000 25.483800 -1798 
271029.303501 292812.663000 25.348800 0 
271029.958499 292813.563000 25.348800 0 
271028.223501 292814.628000 25.398800 0 
271026.273500 292813.793000 25.413800 0 
271025.888500 292815.068000 25.423800 0 
271030.193500 292812.393000 25.333800 0 
271024.013500 292815.573000 25.463800 -2047 
271026.233501 292813.918000 25.418800 0 
271027.558500 292815.408000 25.408800 0 
271022.038499 292815.518000 25.503800 -1798 
271026.048500 292812.018000 25.403800 0 
271029.028499 292812.468000 25.353800 0 
271024.538499 292813.328000 25.438800 0 
271022.318500 292817.217999 25.508800 -1798 
271028.823499 292814.958000 25.388800 0 
271022.613500 292815.488000 25.488800 -1798 
271027.728500 292814.058000 25.393800 0 
271024.828500 292813.973000 25.438800 0 
271025.748500 292812.628000 25.413800 0 
271029.393501 292813.438000 25.358800 0 
271026.053501 292812.268000 25.408800 0 
271028.118499 292811.708000 25.363800 0 
271022.403499 292817.162999 25.508800 -1798 
271028.193500 292815.208000 25.403800 0 
271028.693500 292813.448000 25.373800 0 
271025.453500 292816.153001 25.438800 0 
271026.073499 292814.048000 25.418800 0 
271026.473501 292814.293000 25.413800 0 
271026.318500 292816.293000 25.428800 0 
271025.813501 292812.618000 25.413800 0 
271028.498500 292813.478000 25.378800 0 
271025.853500 292813.583000 25.418800 0 
271027.818500 292813.958000 25.393800 0 
271026.848501 292814.588000 25.413800 0 
271027.068500 292815.068000 25.413800 0 
271027.833499 292814.408000 25.398800 0 
271027.858501 292815.558000 25.408800 0 
271029.758500 292812.558000 25.338800 0 
271022.818500 292815.348000 25.488800 -1798 
271024.793500 292814.468000 25.438800 0 
271025.213500 292814.568000 25.428800 0 
271022.868499 292816.643001 25.493800 -1798 
271022.318500 292815.838000 25.493800 -1798 
271028.798500 292812.198000 25.353800 0 
271026.028499 292812.058000 25.408800 0 
271030.538499 292812.323000 25.328800 -1798 
271025.263500 292813.343000 25.423800 0 
271028.728500 292812.548000 25.358800 0 
271027.323499 292814.643000 25.408800 0 
271029.223501 292811.523000 25.338800 0 
271026.878499 292815.793000 25.418800 0 
271030.418500 292813.388000 25.338800 -160 
271025.728500 292813.003000 25.418800 0 
271029.338500 292814.698000 25.378800 0 
271025.823499 292813.263000 25.418800 0 
271028.168500 292813.873000 25.388800 0 
271027.923500 292815.063000 25.403800 0 
271027.658500 292814.818000 25.403800 0 
271028.693500 292812.293000 25.358800 0 
271021.883500 292815.783000 25.508800 -1798 
271024.618499 292813.618000 25.438800 0 
271029.333499 292812.473000 25.343800 0 
271029.308500 292812.168000 25.343800 0 
271028.613500 292813.388000 25.378800 0 
271025.633500 292815.683000 25.433800 0 
271029.063501 292813.898000 25.373800 0 
271026.983501 292814.958000 25.413800 0 
271022.298500 292816.308000 25.493800 -1798 
271027.168500 292814.268000 25.403800 0 
271030.428501 292812.363000 25.328800 0 
271026.443500 292813.763000 25.408800 0 
271029.853500 292811.508000 25.328800 0 
271025.808500 292813.648000 25.418800 0 
271028.998500 292813.753000 25.373800 0 
271023.758500 292816.238000 25.473800 -1798 
271027.578500 292814.098000 25.398800 0 
271029.563501 292811.648000 25.333800 -160 
271030.198499 292812.018000 25.333800 0 
271024.483501 292814.063000 25.443800 0 
271027.763500 292814.798000 25.403800 0 
271025.923500 292814.103000 25.418800 0 
271024.893501 292814.988000 25.438800 0 
271024.313501 292816.473000 25.463800 0 
271029.633500 292813.053000 25.348800 0 
271029.003499 292813.348000 25.363800 0 
271026.093500 292816.328000 25.428800 0 
271024.848501 292812.938000 25.428800 0 
271021.568500 292816.127999 25.518800 -1798 
271025.738500 292816.678000 25.443800 0 
271026.818500 292814.163000 25.403800 0 
271026.513500 292814.558000 25.418800 0 
271027.713500 292813.723000 25.393800 -160 
271028.803501 292812.303000 25.353800 0 
271030.538499 292811.973000 25.323800 0 
271029.288499 292813.273000 25.358800 0 
271024.993499 292813.618000 25.428800 0 
271028.663499 292813.873000 25.388800 0 
271029.073499 292812.163000 25.348800 0 
271027.213500 292814.888000 25.413800 0 
271026.728500 292814.553000 25.413800 0 
271022.403499 292817.002999 25.503800 -1798 
271028.543500 292812.418000 25.363800 0 
271023.163499 292813.883000 25.468800 -1798 
271027.508500 292814.448000 25.403800 0 
271028.733501 292813.358000 25.368800 0 
271025.818500 292812.438000 25.413800 0 
271025.198499 292814.443000 25.433800 0 
271030.298500 292812.768000 25.333800 0 
271028.633500 292813.548000 25.378800 0 
271027.833499 292814.233000 25.398800 0 
271028.333499 292813.573000 25.388800 0 
271021.863500 292814.378000 25.503800 0 
271025.888500 292815.543000 25.428800 0 
271030.938501 292811.518000 25.313800 0 
271030.773500 292813.333000 25.333800 0 
271024.933500 292816.037999 25.453800 -1798 
271027.183500 292814.423000 25.408800 0 
271023.963500 292813.588000 25.448800 0 
271026.613500 292814.843000 25.418800 -1798 
271025.128499 292813.918000 25.428800 0 
271029.593500 292812.918000 25.348800 0 
271028.283500 292811.618000 25.358800 -160 
271029.233501 292812.418000 25.348800 0 
271021.958499 292815.068000 25.503800 -1798 
271028.523500 292813.778000 25.383800 0 
271029.638500 292811.668000 25.328800 0 
271030.093500 292812.233000 25.333800 0 
271025.638500 292814.158000 25.423800 0 
271027.523500 292811.508000 25.373800 0 
271021.653499 292816.553000 25.518800 -1798 
271030.813501 292813.293000 25.333800 -160 
271030.788499 292812.268000 25.323800 0 
271026.728500 292814.103000 25.408800 0 
271025.543500 292812.773000 25.418800 0 
271026.373500 292814.833000 25.418800 0 
271028.848501 292813.228000 25.368800 0 
271027.243499 292814.153000 25.403800 0 
271022.213500 292816.698001 25.503800 0 
271026.253499 292816.377999 25.433800 0 
271028.603500 292812.538000 25.358800 0 
271025.928501 292812.938000 25.413800 0 
271022.133500 292817.078000 25.508800 0 
271028.513500 292813.513000 25.378800 0 
271028.028499 292814.373000 25.398800 0 
271028.613500 292813.883000 25.383800 0 
271024.058500 292814.363000 25.453800 0 
271025.833499 292812.763000 25.413800 0 
271028.198499 292814.498000 25.398800 0 
271029.248500 292814.248000 25.373800 0 
271025.818500 292813.443000 25.418800 0 
271027.758500 292813.983000 25.398800 0 
271025.438501 292812.888000 25.418800 0 
271028.783500 292813.408000 25.368800 0 
271029.303501 292812.828000 25.353800 0 
271025.958499 292814.903000 25.423800 0 
271025.388500 292813.318000 25.423800 0 
271024.193500 292814.618000 25.453800 -1798 
271026.603500 292812.613000 25.403800 -1798 
271024.178501 292813.383000 25.443800 0 
271026.173500 292815.223000 25.423800 0 
271030.258500 292813.588000 25.343800 0 
271028.658500 292814.468000 25.388800 0 
271028.873500 292812.178000 25.353800 0 
271028.463500 292814.048000 25.383800 0 
271025.713500 292812.888000 25.418800 0 
271026.748500 292811.943000 25.393800 -160 
271027.468500 292814.573000 25.408800 -1798 
271028.758500 292813.183000 25.368800 0 
271026.378499 292813.773000 25.413800 0 
271025.038499 292813.308000 25.428800 -1798 
271029.528499 292813.303000 25.358800 0 
271029.473501 292813.503000 25.358800 0 
271022.998500 292813.848000 25.473800 0 
271028.523500 292811.898000 25.358800 0 
271029.868499 292813.033000 25.343800 0 
271026.438501 292814.358000 25.413800 0 
271026.973501 292815.967999 25.418800 0 
271028.243499 292814.168000 25.393800 0 
271028.238500 292813.973000 25.388800 0 
271024.673500 292815.903001 25.453800 -1798 
271029.698499 292812.558000 25.338800 0 
271021.938501 292815.707999 25.508800 -1798 
271024.368499 292813.948000 25.443800 -1798 
271023.213500 292814.548000 25.473800 -1798 
271028.748500 292811.788000 25.353800 0 
271026.388500 292813.893000 25.413800 0 
271026.308500 292813.663000 25.413800 0 
271024.658500 292815.698001 25.453800 0 
271024.733501 292812.923000 25.428800 0 
271028.458499 292811.868000 25.358800 0 
271026.258500 292812.163000 25.403800 -1798 
271026.378499 292814.118000 25.413800 0 
271023.953500 292815.048000 25.458800 0 
271025.843500 292814.968000 25.423800 0 
271026.053501 292815.803000 25.428800 0 
271029.548500 292812.298000 25.338800 -160 
271029.968500 292813.528000 25.348800 0 
271025.783500 292815.668000 25.433800 0 
271028.363500 292811.943000 25.358800 0 
271023.278499 292813.863000 25.468800 0 
271027.483501 292814.198000 25.403800 0 
271022.158500 292815.943000 25.498800 -1798 
271029.498500 292813.418000 25.358800 0 
271029.168500 292812.183000 25.348800 0 
271026.708499 292813.938000 25.408800 0 
271029.563501 292813.558000 25.358800 0 
271026.033500 292813.163000 25.413800 0 
271028.513500 292811.778000 25.358800 0 
271026.108501 292814.028000 25.418800 0 
271028.618499 292814.108000 25.383800 0 
271027.358501 292815.358000 25.413800 0 
271025.493499 292813.068000 25.418800 0 
271027.883500 292814.283000 25.398800 0 
271025.728500 292814.463000 25.418800 0 
271028.373500 292813.848000 25.388800 0 
271025.943500 292813.408000 25.418800 0 
271025.173500 292815.863000 25.443800 -1798 
271029.613500 292813.173000 25.348800 0 
271026.123500 292816.448001 25.433800 0 
271026.498500 292815.713000 25.418800 0 
271028.348501 292813.918000 25.388800 0 
271024.483501 292815.243000 25.448800 -1798 
271025.508500 292812.778000 25.418800 0 
271028.483501 292813.303000 25.378800 0 
271024.313501 292814.443000 25.448800 0 
271030.333499 292812.278000 25.328800 0 
271029.943500 292811.698000 25.328800 0 
271027.778499 292814.538000 25.403800 0 
271025.853500 292813.843000 25.418800 0 
271026.998500 292815.163000 25.418800 0 
271026.153499 292813.593000 25.418800 0 
271027.298500 292815.183000 25.413800 0 
271026.253499 292814.568000 25.418800 0 
271024.558500 292814.538000 25.443800 0 
271028.108501 292813.813000 25.383800 0 
271025.968500 292814.198000 25.418800 -1798 
271022.718500 292816.408000 25.493800 -1798 
271023.083499 292814.123000 25.473800 0 
271029.208499 292813.228000 25.363800 0 
271026.558500 292816.252999 25.423800 0 
271029.533500 292812.233000 25.338800 0 
271023.678501 292816.603000 25.478800 0 
271027.333499 292813.123000 25.393800 -160 
271026.038499 292812.173000 25.408800 0 
271028.958499 292814.258000 25.383800 0 
271025.373500 292815.208000 25.433800 0 
271026.133500 292813.713000 25.418800 0 
271023.758500 292814.313000 25.458800 -1798 
271026.138500 292813.868000 25.418800 0 
271025.868499 292814.278000 25.418800 0 
271029.148500 292812.448000 25.348800 0 
271023.938501 292814.618000 25.458800 -1798 
271029.348501 292812.863000 25.353800 0 
271028.563501 292813.833000 25.383800 0 
271025.848501 292814.378000 25.418800 0 
271025.138500 292814.103000 25.433800 -1798 
271025.693500 292813.953000 25.418800 0 
271029.573499 292811.683000 25.333800 0 
271029.018501 292813.153000 25.363800 0 
271023.668500 292813.948000 25.458800 0 
271029.498500 292812.863000 25.348800 -160 
271026.963500 292814.573000 25.413800 0 
271028.753499 292812.498000 25.353800 0 
271025.843500 292814.133000 25.418800 0 
271027.653499 292814.103000 25.403800 0 
271028.873500 292813.723000 25.373800 0 
271022.558500 292816.658000 25.498800 -1798 
271027.103500 292814.593000 25.408800 0 
271029.163499 292814.863000 25.383800 0 
271029.413499 292813.133000 25.353800 0 
271026.153499 292813.973000 25.418800 0 
271030.778499 292811.738000 25.313800 0 
271027.948499 292814.018000 25.393800 0 
271023.498500 292814.763000 25.468800 0 
271026.693500 292816.008000 25.418800 0 
271025.273500 292814.258000 25.428800 0 
271025.873500 292812.353000 25.413800 0 
271030.983501 292812.123000 25.313800 0 
271028.583499 292813.038000 25.373800 -160 
271025.193500 292812.998000 25.418800 0 
271026.358501 292814.393000 25.413800 0 
271028.263500 292813.908000 25.388800 0 
271023.103500 292816.608001 25.488800 -1798 
271028.398500 292811.843000 25.358800 0 
271024.858501 292813.033000 25.428800 0 
271025.928501 292814.283000 25.418800 0 
271030.538499 292812.803000 25.333800 0 
271025.473501 292812.818000 25.418800 0 
271021.533500 292815.653001 25.518800 -1798 
271026.688501 292814.213000 25.408800 0 
271025.638500 292814.813000 25.423800 0 
271025.753499 292813.543000 25.418800 0 
271022.503499 292813.958000 25.483800 -1798 
271022.783500 292815.553000 25.488800 -1798 
271029.873500 292813.603000 25.353800 0 
271027.758500 292815.578000 25.408800 0 
271025.763500 292813.183000 25.418800 0 
271028.163499 292814.178000 25.393800 0 
271028.203500 292814.038000 25.388800 0 
271021.678501 292816.648000 25.518800 -1798 
271021.688501 292816.713000 25.518800 -1798 
271026.928501 292814.193000 25.408800 0 
271028.903499 292812.988000 25.363800 0 
271025.633500 292812.533000 25.418800 0 
271023.428501 292813.488000 25.458800 0 
271025.363500 292813.218000 25.418800 0 
271028.493499 292814.703000 25.393800 0 
271022.808500 292814.048000 25.478800 -1798 
271026.063501 292813.393000 25.418800 0 
271029.823499 292812.673000 25.338800 0 
271028.028499 292814.008000 25.393800 0 
271029.303501 292813.393000 25.363800 0 
271024.788499 292813.543000 25.433800 -1798 
271029.523500 292814.393000 25.368800 0 
271028.358501 292813.813000 25.388800 0 
271022.788499 292816.252999 25.488800 -1798 
271026.388500 292814.013000 25.413800 0 
271028.718500 292815.028000 25.388800 0 
271027.858501 292812.458000 25.378800 -1798 
271025.983501 292813.353000 25.418800 0 
271029.278499 292813.328000 25.358800 0 
271026.013500 292814.033000 25.418800 0 
271026.778499 292814.968000 25.418800 0 
271028.738500 292812.918000 25.368800 0 
271025.918500 292813.808000 25.418800 0 
271026.523500 292814.793000 25.418800 0 
271029.678501 292814.173000 25.358800 0 
271028.483501 292814.223000 25.388800 0 
271025.633500 292813.788000 25.418800 0 
271024.848501 292813.283000 25.433800 -160 
271030.918500 292812.608000 25.323800 0 
271028.368499 292814.173000 25.383800 0 
271026.328500 292815.258000 25.418800 -1798 
271025.923500 292813.188000 25.418800 0 
271026.908500 292813.198000 25.403800 -1798 
271026.573499 292814.093000 25.408800 0 
271027.643501 292814.913000 25.403800 0 
271025.053501 292812.928000 25.423800 0 
271024.933500 292816.223000 25.453800 0 
271025.633500 292816.123000 25.438800 0 
271029.283500 292811.628000 25.338800 0 
271022.833499 292815.543000 25.488800 0 
271025.808500 292815.248000 25.428800 0 
271022.978500 292814.663000 25.483800 0 
271028.748500 292813.703000 25.378800 0 
271025.883500 292812.218000 25.408800 0 
271027.783500 292813.758000 25.393800 -1798 
271024.053501 292814.833000 25.458800 -1798 
271028.053501 292814.568000 25.398800 0 
271028.573499 292811.793000 25.353800 0 
271021.558500 292817.113000 25.523800 -1798 
271027.518501 292814.373000 25.403800 0 
271025.913499 292813.013000 25.413800 0 
271025.043500 292813.433000 25.428800 0 
271023.513500 292814.683000 25.468800 -1798 
271029.738500 292813.123000 25.348800 0 
271027.358501 292814.528000 25.403800 0 
271026.143501 292812.093000 25.408800 0 
271027.728500 292815.208000 25.403800 0 
271028.638500 292811.953000 25.353800 0 
271023.328500 292816.233001 25.478800 0 
271026.063501 292813.573000 25.418800 0 
271023.343500 292814.108000 25.468800 -1798 
271025.313501 292815.473000 25.438800 0 
271028.103500 292814.218000 25.393800 0 
271029.698499 292813.303000 25.353800 0 
271023.338500 292815.433000 25.473800 -1798 
271025.318500 292814.598000 25.428800 0 
271028.843500 292811.718000 25.348800 0 
271029.723501 292814.368000 25.358800 0 
271024.878499 292813.788000 25.433800 0 
271025.238500 292812.953000 25.418800 0 
271024.998500 292812.623000 25.418800 0 
271025.228500 292812.733000 25.418800 0 
271028.973501 292812.018000 25.348800 0 
271022.698499 292815.648000 25.488800 -1798 
271026.638500 292815.458000 25.418800 0 
271026.103500 292813.923000 25.418800 0 
271029.233501 292813.578000 25.363800 0 
271028.673500 292812.988000 25.363800 0 
271028.693500 292814.378000 25.388800 0 
271028.683500 292812.783000 25.363800 0 
271028.813501 292811.673000 25.348800 0 
271021.653499 292816.153001 25.518800 -1798 
271026.933500 292813.713000 25.403800 -160 
271028.913499 292813.653000 25.368800 0 
271026.113500 292812.773000 25.408800 -1798 
271029.173500 292813.193000 25.358800 0 
271024.608501 292816.502999 25.463800 0 
271025.548500 292814.583000 25.423800 0 
271029.528499 292811.578000 25.333800 -160 
271027.648500 292811.538000 25.373800 0 
271027.513500 292815.023000 25.408800 0 
271024.593500 292813.758000 25.438800 0 
271026.623500 292814.153000 25.408800 0 
271028.568500 292811.513000 25.353800 0 
271028.093500 292814.468000 25.393800 0 
271026.838500 292814.173000 25.408800 0 
271028.658500 292812.123000 25.358800 0 
271024.958499 292813.318000 25.428800 0 
271030.063501 292812.448000 25.333800 0 
271025.778499 292812.138000 25.413800 0 
271023.958499 292814.138000 25.453800 0 
271026.173500 292812.153000 25.408800 0 
271027.678501 292814.013000 25.393800 0 
271026.028499 292813.513000 25.418800 0 
271025.693500 292812.993000 25.418800 0 
271025.618499 292812.918000 25.418800 0 
271024.033500 292815.797999 25.463800 0 
271025.983501 292813.668000 25.418800 0 
271027.323499 292815.483000 25.413800 0 
271028.253499 292815.318000 25.403800 0 
271025.628499 292812.358000 25.413800 0 
271028.703500 292813.238000 25.373800 0 
271023.973501 292815.723000 25.463800 0 
271027.063501 292814.518000 25.408800 0 
271029.398500 292814.343000 25.373800 0 
271022.148500 292815.108000 25.498800 0 
271026.983501 292814.603000 25.413800 -1798 
271027.703500 292814.373000 25.403800 0 
271026.233501 292815.458000 25.423800 0 
271025.558500 292815.853000 25.438800 0 
271024.798500 292816.773000 25.458800 -1798 
271022.198499 292815.793000 25.498800 -1798 
271025.338500 292813.088000 25.418800 0 
271029.623500 292813.573000 25.358800 0 
271028.313501 292814.438000 25.393800 0 
271027.173500 292814.363000 25.403800 0 
271028.373500 292814.453000 25.393800 0 
271028.113500 292814.328000 25.398800 0 
271029.798500 292812.383000 25.333800 0 
271024.428501 292813.538000 25.438800 -1798 
271027.463500 292814.198000 25.403800 0 
271022.968500 292815.398000 25.483800 0 
271030.658500 292812.073000 25.323800 0 
271028.328500 292814.023000 25.388800 0 
271025.768501 292814.703000 25.418800 0 
